-4.193115234375000000e-02 -6.855010986328125000e-03 -1.997070312500000000e-01 1.663907963647502097e-01 6.279052785120474711e-01 7.602953795083937649e-01
-4.098510742187500000e-02 -6.855010986328125000e-03 -1.997070312500000000e-01 2.185213712270522579e-01 6.418508802412199454e-01 7.350345963630691148e-01
-4.006958007812500000e-02 -6.855010986328125000e-03 -1.997070312500000000e-01 2.238047965190399224e-01 6.566150540787966117e-01 7.202555684006684000e-01
-3.930664062500000000e-02 -6.889343261718750000e-03 -2.006835937500000000e-01 3.055448292402501154e-01 6.506430551367169413e-01 6.952021088337588806e-01
-3.839111328125000000e-02 -6.889343261718750000e-03 -2.006835937500000000e-01 -2.758990177985048420e-01 -6.887394398288644304e-01 -6.704608236146556433e-01
-3.744506835937500000e-02 -6.889343261718750000e-03 -2.006835937500000000e-01 -3.406252914659425590e-01 -6.886095915340908480e-01 -6.401493897997513338e-01
-3.668212890625000000e-02 -6.923675537109375000e-03 -2.017822265625000000e-01 -4.161726133370904912e-01 -6.575307017394977915e-01 -6.280555167961987539e-01
-3.573608398437500000e-02 -6.923675537109375000e-03 -2.017822265625000000e-01 -4.684438354237377977e-01 -6.557372274727547579e-01 -5.920887277763721146e-01
-3.494262695312500000e-02 -6.958007812500000000e-03 -2.027587890625000000e-01 -5.119131892247601456e-01 -6.268298439451213122e-01 -5.873918908509631054e-01
-3.417968750000000000e-02 -6.992340087890625000e-03 -2.037353515625000000e-01 5.440783255031566013e-01 5.892838876173533968e-01 5.972631543233348772e-01
-3.338623046875000000e-02 -7.026672363281250000e-03 -2.047119140625000000e-01 6.051439546496665267e-01 5.262223143721619367e-01 5.974034399028580467e-01
-3.256225585937500000e-02 -7.061004638671875000e-03 -2.056884765625000000e-01 6.067774208239957723e-01 4.565665316099182247e-01 6.506674755909261920e-01
-3.176879882812500000e-02 -7.095336914062500000e-03 -2.067871093750000000e-01 6.126557725096760665e-01 3.831802360506792460e-01 6.912494564994016155e-01
-3.094482421875000000e-02 -7.129669189453125000e-03 -2.077636718750000000e-01 -5.805064960392036788e-01 -2.871275863733245282e-01 -7.619514139364232941e-01
-3.096008300781250000e-02 -7.610321044921875000e-03 -2.218017578125000000e-01 -6.750457264580066175e-02 -2.467149226372021831e-01 -9.667341307826196051e-01
-2.990722656250000000e-02 -7.610321044921875000e-03 -2.218017578125000000e-01 -8.554627088281521741e-02 -1.883008290199664203e-01 -9.783785736249734910e-01
-2.900695800781250000e-02 -7.644653320312500000e-03 -2.227783203125000000e-01 -7.798055275734781799e-02 -2.361348352140180684e-01 -9.685862754500020877e-01
-2.795410156250000000e-02 -7.644653320312500000e-03 -2.227783203125000000e-01 8.429573817536710478e-02 2.271867516082275995e-01 9.701960669984038832e-01
-2.690124511718750000e-02 -7.644653320312500000e-03 -2.227783203125000000e-01 6.089915259846083451e-02 2.355310765999543143e-01 9.699569089235127173e-01
-2.586364746093750000e-02 -7.644653320312500000e-03 -2.227783203125000000e-01 1.868348425041952213e-02 2.273135330611423532e-01 9.736423804988797448e-01
-2.481079101562500000e-02 -7.644653320312500000e-03 -2.227783203125000000e-01 1.257894690395424536e-02 1.326725102327943606e-01 9.910801053009371531e-01
-2.377319335937500000e-02 -7.644653320312500000e-03 -2.227783203125000000e-01 2.419776919486611028e-02 1.791748488476481160e-01 9.835196192788501213e-01
-2.272033691406250000e-02 -7.644653320312500000e-03 -2.227783203125000000e-01 -1.526022337946586439e-03 1.434170388033472743e-01 9.896611663780200407e-01
-2.166748046875000000e-02 -7.644653320312500000e-03 -2.227783203125000000e-01 9.671496832128890012e-03 1.937551533472737786e-01 9.810022439833664398e-01
-2.062988281250000000e-02 -7.644653320312500000e-03 -2.227783203125000000e-01 -7.448365283636848577e-03 1.344781779147216083e-01 9.908885616048547229e-01
-1.957702636718750000e-02 -7.644653320312500000e-03 -2.227783203125000000e-01 -7.250928753227965477e-03 1.679750253568729479e-01 9.857645839086396355e-01
-1.853942871093750000e-02 -7.644653320312500000e-03 -2.227783203125000000e-01 9.636196861740810304e-03 1.951501103032749762e-01 9.807260464363436459e-01
-1.748657226562500000e-02 -7.644653320312500000e-03 -2.227783203125000000e-01 1.815073916590428244e-02 2.274603674605782666e-01 9.736181653515045831e-01
-1.643371582031250000e-02 -7.644653320312500000e-03 -2.227783203125000000e-01 -5.273788378467534482e-02 2.901234127754456771e-01 9.555349920193620950e-01
-1.539611816406250000e-02 -7.644653320312500000e-03 -2.227783203125000000e-01 5.133945592295666160e-02 -3.384824268755187160e-01 -9.395711292722832564e-01
-1.435089111328125000e-02 -7.644653320312500000e-03 -2.227783203125000000e-01 1.430485877479032164e-01 -3.842049717975770662e-01 -9.120984821768719497e-01
-1.324462890625000000e-02 -7.610321044921875000e-03 -2.218017578125000000e-01 2.175445456536767852e-01 -3.713347318819159026e-01 -9.026543566363156579e-01
-7.419586181640625000e-03 -7.026672363281250000e-03 -2.047119140625000000e-01 4.858300632072479197e-01 -3.507913223125933011e-01 -8.005714195961681767e-01
-6.454467773437500000e-03 -7.026672363281250000e-03 -2.047119140625000000e-01 4.151889241411693132e-01 -3.492205029601152533e-01 -8.400376167665248861e-01
-5.466461181640625000e-03 -6.992340087890625000e-03 -2.037353515625000000e-01 4.020881258353965482e-01 -3.538240445343484031e-01 -8.444724297284864623e-01
-4.508972167968750000e-03 -6.992340087890625000e-03 -2.037353515625000000e-01 -3.928957523526263040e-01 3.663935369078600290e-01 8.434386189257712108e-01
-3.536224365234375000e-03 -6.958007812500000000e-03 -2.027587890625000000e-01 -4.589802157060871024e-01 3.924222750283770100e-01 7.970833831237148503e-01
-2.584457397460937500e-03 -6.958007812500000000e-03 -2.027587890625000000e-01 -4.419181140721483159e-01 4.159130937503551784e-01 7.948110963631067616e-01
-1.624107360839843750e-03 -6.923675537109375000e-03 -2.017822265625000000e-01 -4.682260737871680734e-01 4.585811007408742146e-01 7.552931337362611686e-01
-6.737709045410156250e-04 -6.889343261718750000e-03 -2.006835937500000000e-01 -4.681784493320410578e-01 5.303356716506223423e-01 7.067906443607815392e-01
2.689361572265625000e-04 -6.889343261718750000e-03 -2.006835937500000000e-01 -3.810017828393825745e-01 5.906706634281833068e-01 7.112986776583529736e-01
1.205444335937500000e-03 -6.855010986328125000e-03 -1.997070312500000000e-01 -2.536969124654259167e-01 6.230270634680742381e-01 7.399156403211505362e-01
2.143859863281250000e-03 -6.855010986328125000e-03 -1.997070312500000000e-01 -2.377103868261846442e-01 6.262429482284648241e-01 7.425049102794311073e-01
3.082275390625000000e-03 -6.855010986328125000e-03 -1.997070312500000000e-01 -1.968883045174510960e-01 6.223712305641380116e-01 7.575546494546276932e-01
4.016876220703125000e-03 -6.855010986328125000e-03 -1.997070312500000000e-01 -1.396223341799774642e-01 6.094938741825983719e-01 7.803991421907263693e-01
4.955291748046875000e-03 -6.855010986328125000e-03 -1.997070312500000000e-01 -9.622076528740451662e-02 6.132836648611924568e-01 7.839800448620684037e-01
5.867004394531250000e-03 -6.820678710937500000e-03 -1.987304687500000000e-01 -5.989471296755435187e-02 6.054009752171768399e-01 7.936638347339669552e-01
6.797790527343750000e-03 -6.820678710937500000e-03 -1.987304687500000000e-01 -1.895377451574004751e-02 6.003417261110984837e-01 7.995189593258895666e-01
7.732391357421875000e-03 -6.820678710937500000e-03 -1.987304687500000000e-01 3.219049309784024343e-02 6.047943707332807950e-01 7.957308221273402538e-01
8.666992187500000000e-03 -6.820678710937500000e-03 -1.987304687500000000e-01 7.907111732340466048e-02 5.852652963710707201e-01 8.069772557320999962e-01
9.643554687500000000e-03 -6.855010986328125000e-03 -1.997070312500000000e-01 -8.486795928158309688e-02 -5.869892091371854415e-01 -8.051342110753223480e-01
1.296997070312500000e-02 -7.717132568359375000e-03 -2.248535156250000000e-01 4.196001136921780061e-02 -7.160059421650264433e-01 -6.968320086148936943e-01
1.396179199218750000e-02 -7.682800292968750000e-03 -2.237548828125000000e-01 2.843456911358393374e-02 -7.065086204738963982e-01 -7.071329751011451448e-01
1.501464843750000000e-02 -7.682800292968750000e-03 -2.237548828125000000e-01 2.627954724906021722e-02 -7.069339820569175981e-01 -7.067911504889786700e-01
1.606750488281250000e-02 -7.682800292968750000e-03 -2.237548828125000000e-01 2.493160871683429078e-02 -7.091978191485922567e-01 -7.045685688431404525e-01
1.712036132812500000e-02 -7.682800292968750000e-03 -2.237548828125000000e-01 2.165194562899576186e-04 7.067707935464661029e-01 7.074425761212166375e-01
1.817321777343750000e-02 -7.682800292968750000e-03 -2.237548828125000000e-01 2.148869832516786603e-04 7.067702774898347862e-01 7.074430921851780907e-01
1.921081542968750000e-02 -7.682800292968750000e-03 -2.237548828125000000e-01 2.166173909572815799e-04 7.067698318349421305e-01 7.074435368882194819e-01
2.026367187500000000e-02 -7.682800292968750000e-03 -2.237548828125000000e-01 2.186893614003656812e-04 7.067692822311192336e-01 7.074440853307570887e-01
2.131652832031250000e-02 -7.682800292968750000e-03 -2.237548828125000000e-01 2.166808183360027947e-04 7.067687738708080536e-01 7.074445938238396181e-01
2.236938476562500000e-02 -7.682800292968750000e-03 -2.237548828125000000e-01 2.168564382059238842e-04 7.067683240024149605e-01 7.074450432083770890e-01
2.342224121093750000e-02 -7.682800292968750000e-03 -2.237548828125000000e-01 3.536643739988607621e-02 6.902339418969679619e-01 7.227214681736063850e-01
2.447509765625000000e-02 -7.682800292968750000e-03 -2.237548828125000000e-01 7.993962076304654552e-02 6.557373352697815072e-01 7.507450993283583118e-01
2.552795410156250000e-02 -7.682800292968750000e-03 -2.237548828125000000e-01 1.208179726636743473e-01 6.410327101404694750e-01 7.579446431048935118e-01
2.658081054687500000e-02 -7.682800292968750000e-03 -2.237548828125000000e-01 1.422202803619011802e-01 6.294782523099961002e-01 7.638916950213133772e-01
2.775573730468750000e-02 -7.717132568359375000e-03 -2.248535156250000000e-01 1.417441484134769336e-01 6.273707124033081062e-01 7.657118162919414051e-01
2.880859375000000000e-02 -7.717132568359375000e-03 -2.248535156250000000e-01 1.203376561649356080e-01 6.380805991238326369e-01 7.605077235179802386e-01
2.986145019531250000e-02 -7.717132568359375000e-03 -2.248535156250000000e-01 8.001344909878621570e-02 6.527556542843929721e-01 7.533312045595018658e-01
3.091430664062500000e-02 -7.717132568359375000e-03 -2.248535156250000000e-01 3.361834141847298840e-02 6.714833209706145833e-01 7.402566830353816130e-01
3.198242187500000000e-02 -7.717132568359375000e-03 -2.248535156250000000e-01 -1.905937843452474656e-03 6.874901253175030869e-01 7.261912248105597545e-01
3.302001953125000000e-02 -7.717132568359375000e-03 -2.248535156250000000e-01 -1.912642687344753584e-03 6.874946129809611506e-01 7.261869586546628730e-01
3.408813476562500000e-02 -7.717132568359375000e-03 -2.248535156250000000e-01 -1.902927131089671674e-03 6.874997636754704988e-01 7.261821078865176027e-01
3.512573242187500000e-02 -7.717132568359375000e-03 -2.248535156250000000e-01 -1.914566411024850798e-03 6.875035673605450759e-01 7.261784762040132124e-01
3.619384765625000000e-02 -7.717132568359375000e-03 -2.248535156250000000e-01 -1.913322254857395240e-03 6.875081204451281014e-01 7.261741688603060574e-01
3.726196289062500000e-02 -7.717132568359375000e-03 -2.248535156250000000e-01 -1.747513032897861536e-03 6.875108840099120044e-01 7.261719703803701798e-01
3.829956054687500000e-02 -7.717132568359375000e-03 -2.248535156250000000e-01 -1.779821885739270998e-03 6.875135115012710463e-01 7.261694042971285068e-01
3.936767578125000000e-02 -7.717132568359375000e-03 -2.248535156250000000e-01 -1.778019799628488030e-03 6.875172162145821719e-01 7.261659011921060003e-01
4.040527343750000000e-02 -7.717132568359375000e-03 -2.248535156250000000e-01 -1.759151043458961937e-03 6.875223369076348678e-01 7.261610989585374210e-01
4.147338867187500000e-02 -7.717132568359375000e-03 -2.248535156250000000e-01 -1.393025435057118969e-02 6.949319414266730277e-01 7.189405711174488012e-01
4.254150390625000000e-02 -7.717132568359375000e-03 -2.248535156250000000e-01 -2.120058584691051143e-02 6.830689208982412275e-01 7.300461522826210414e-01
4.357910156250000000e-02 -7.717132568359375000e-03 -2.248535156250000000e-01 -2.164486082342235301e-02 6.697474983285233163e-01 7.422733920077018155e-01
4.464721679687500000e-02 -7.717132568359375000e-03 -2.248535156250000000e-01 -1.485661841857506202e-02 6.548202065881154610e-01 7.556386556635801277e-01
4.568481445312500000e-02 -7.717132568359375000e-03 -2.248535156250000000e-01 -2.315008422687448233e-02 6.307270987481036206e-01 7.756593327647700598e-01
4.675292968750000000e-02 -7.717132568359375000e-03 -2.248535156250000000e-01 -3.864258737566221569e-02 6.222615042985333300e-01 7.818550829335577657e-01
4.782104492187500000e-02 -7.717132568359375000e-03 -2.248535156250000000e-01 -4.696436274477734651e-02 6.131182776517558608e-01 7.885938918361727890e-01
4.885864257812500000e-02 -7.717132568359375000e-03 -2.248535156250000000e-01 -4.756829562431329206e-02 6.036143879611808316e-01 7.958560974809748556e-01
4.992675781250000000e-02 -7.717132568359375000e-03 -2.248535156250000000e-01 -1.565164317410227407e-02 6.043328826009122245e-01 7.965781776280482784e-01
5.096435546875000000e-02 -7.717132568359375000e-03 -2.248535156250000000e-01 1.537852215850548342e-02 6.028044612379254152e-01 7.977407364350116437e-01
5.203247070312500000e-02 -7.717132568359375000e-03 -2.248535156250000000e-01 5.161322692500135145e-02 6.029705189663774334e-01 7.960920977272704091e-01
5.310058593750000000e-02 -7.717132568359375000e-03 -2.248535156250000000e-01 6.138198600787347914e-02 6.268127632220771295e-01 7.767483579999595600e-01
5.413818359375000000e-02 -7.717132568359375000e-03 -2.248535156250000000e-01 5.517470043016348136e-02 6.490026128031398667e-01 7.587828154400569902e-01
5.520629882812500000e-02 -7.717132568359375000e-03 -2.248535156250000000e-01 4.841680090056056651e-02 6.768893623848581953e-01 7.344907109560853131e-01
5.624389648437500000e-02 -7.717132568359375000e-03 -2.248535156250000000e-01 1.882178783162043526e-02 6.946121403608080946e-01 7.191381750165948272e-01
5.731201171875000000e-02 -7.717132568359375000e-03 -2.248535156250000000e-01 5.937930754157900526e-04 7.058462233495039762e-01 7.083648469489616240e-01
5.838012695312500000e-02 -7.717132568359375000e-03 -2.248535156250000000e-01 3.668712541637471824e-04 7.059003871014214448e-01 7.083110255357784046e-01
5.941772460937500000e-02 -7.717132568359375000e-03 -2.248535156250000000e-01 1.194678404250771979e-03 7.051922963580837811e-01 7.090150900373863863e-01
6.048583984375000000e-02 -7.717132568359375000e-03 -2.248535156250000000e-01 3.578378747836728096e-04 7.058984132872495598e-01 7.083129972481082559e-01
6.155395507812500000e-02 -7.717132568359375000e-03 -2.248535156250000000e-01 3.815453149776681409e-04 7.058975835741905236e-01 7.083138117581014859e-01
6.256103515625000000e-02 -7.717132568359375000e-03 -2.248535156250000000e-01 4.849418028230085241e-03 6.884474834212093164e-01 7.252699812592489081e-01
6.365966796875000000e-02 -7.717132568359375000e-03 -2.248535156250000000e-01 -1.890405776878134256e-03 6.745551715204805010e-01 7.382220173775462246e-01
6.469726562500000000e-02 -7.717132568359375000e-03 -2.248535156250000000e-01 1.974708271300901815e-03 6.751813661039675063e-01 7.376491194282167596e-01
6.573486328125000000e-02 -7.717132568359375000e-03 -2.248535156250000000e-01 -1.186583978770168815e-03 6.886906224553139833e-01 7.250543555903746773e-01
6.683349609375000000e-02 -7.717132568359375000e-03 -2.248535156250000000e-01 3.924093327746177879e-04 7.058939362285757690e-01 7.083174407076554546e-01
6.787109375000000000e-02 -7.717132568359375000e-03 -2.248535156250000000e-01 3.830349684851980501e-04 7.058926833383015742e-01 7.083186944403383478e-01
6.890869140625000000e-02 -7.717132568359375000e-03 -2.248535156250000000e-01 3.712950060180201226e-04 7.058917572473897284e-01 7.083196236094342346e-01
6.994628906250000000e-02 -7.717132568359375000e-03 -2.248535156250000000e-01 1.213150214460909830e-03 7.051640865360739863e-01 7.090431152802355586e-01
7.104492187500000000e-02 -7.717132568359375000e-03 -2.248535156250000000e-01 3.612954056180620629e-04 7.058900566310866154e-01 7.083213235636713900e-01
7.208251953125000000e-02 -7.717132568359375000e-03 -2.248535156250000000e-01 -1.485398722291571792e-03 6.876278270302839113e-01 7.260618190514122050e-01
7.312011718750000000e-02 -7.717132568359375000e-03 -2.248535156250000000e-01 -7.660872280340458957e-04 6.727047021005360117e-01 7.399106681770363236e-01
7.421875000000000000e-02 -7.717132568359375000e-03 -2.248535156250000000e-01 1.926899825771508177e-03 6.729288956034976676e-01 7.397046630371599818e-01
7.525634765625000000e-02 -7.717132568359375000e-03 -2.248535156250000000e-01 -4.349596857239443771e-04 6.726936469929775120e-01 7.399209877448802430e-01
7.629394531250000000e-02 -7.717132568359375000e-03 -2.248535156250000000e-01 -3.187159402134577221e-04 6.726902570896291511e-01 7.399241288381113169e-01
7.739257812500000000e-02 -7.717132568359375000e-03 -2.248535156250000000e-01 1.909454423500558072e-03 6.729143160232016196e-01 7.397179714423811614e-01
7.843017578125000000e-02 -7.717132568359375000e-03 -2.248535156250000000e-01 -6.123475815875589062e-03 6.741524362282403926e-01 7.385668526081173857e-01
7.946777343750000000e-02 -7.717132568359375000e-03 -2.248535156250000000e-01 2.046752664369004462e-03 6.880941293656548385e-01 7.256185498842022685e-01
8.050537109375000000e-02 -7.717132568359375000e-03 -2.248535156250000000e-01 8.653013236250642077e-04 7.052716788740054366e-01 7.089366052277600305e-01
8.160400390625000000e-02 -7.717132568359375000e-03 -2.248535156250000000e-01 2.900858609787968141e-04 7.050793215152486582e-01 7.091283848653853195e-01
8.264160156250000000e-02 -7.717132568359375000e-03 -2.248535156250000000e-01 2.653492921684359935e-04 7.050772993815831446e-01 7.091304051347159243e-01
8.367919921875000000e-02 -7.717132568359375000e-03 -2.248535156250000000e-01 8.460276594493976047e-04 7.052640910260161711e-01 7.089441770312007174e-01
8.477783203125000000e-02 -7.717132568359375000e-03 -2.248535156250000000e-01 2.845122538793144924e-04 7.050766289645920004e-01 7.091310642897433736e-01
8.581542968750000000e-02 -7.717132568359375000e-03 -2.248535156250000000e-01 -1.873380854607817336e-02 6.941953807102269058e-01 7.195427838689942845e-01
8.685302734375000000e-02 -7.717132568359375000e-03 -2.248535156250000000e-01 -2.968696693507200807e-02 6.689500954168379199e-01 7.427142477669317344e-01
8.795166015625000000e-02 -7.717132568359375000e-03 -2.248535156250000000e-01 -4.461479837346968985e-02 6.524826859241399379e-01 7.564891700053046897e-01
8.898925781250000000e-02 -7.717132568359375000e-03 -2.248535156250000000e-01 -5.100064487815448439e-02 6.395535695334002568e-01 7.670529094652458468e-01
9.002685546875000000e-02 -7.717132568359375000e-03 -2.248535156250000000e-01 -2.921200790067152511e-02 6.273030056705162227e-01 7.782272146816425762e-01
9.106445312500000000e-02 -7.717132568359375000e-03 -2.248535156250000000e-01 7.423945013819663883e-04 6.132570403384220992e-01 7.898830618045705743e-01
9.216308593750000000e-02 -7.717132568359375000e-03 -2.248535156250000000e-01 1.484717500065260189e-02 6.239373747148614369e-01 7.813332924101126231e-01
9.320068359375000000e-02 -7.717132568359375000e-03 -2.248535156250000000e-01 3.991093296627939296e-02 6.399208927304249617e-01 7.674036541982693915e-01
9.423828125000000000e-02 -7.717132568359375000e-03 -2.248535156250000000e-01 7.278451381652514818e-02 6.397416224521556005e-01 7.651359820651330024e-01
9.533691406250000000e-02 -7.717132568359375000e-03 -2.248535156250000000e-01 8.450615775336206559e-02 6.366936052882096186e-01 7.664724145635414265e-01
9.637451171875000000e-02 -7.717132568359375000e-03 -2.248535156250000000e-01 1.128606226107627952e-01 6.337629411882773622e-01 7.652496417773059223e-01
9.741210937500000000e-02 -7.717132568359375000e-03 -2.248535156250000000e-01 1.098533668978561306e-01 6.273354153289947277e-01 7.709620706981652472e-01
9.851074218750000000e-02 -7.717132568359375000e-03 -2.248535156250000000e-01 1.001977936201651209e-01 6.051204398279438346e-01 7.898035549781265985e-01
9.997558593750000000e-02 -7.751464843750000000e-03 -2.258300781250000000e-01 2.652200416003303376e-02 5.813434663729739604e-01 8.132258956776955428e-01
1.010742187500000000e-01 -7.751464843750000000e-03 -2.258300781250000000e-01 -2.839052456037206157e-02 5.823157239217657821e-01 8.124668459627487627e-01
1.021118164062500000e-01 -7.751464843750000000e-03 -2.258300781250000000e-01 -7.361631326649593909e-02 6.010472496224953387e-01 7.958158343123633571e-01
1.027221679687500000e-01 -7.717132568359375000e-03 -2.248535156250000000e-01 -1.278805253322582991e-01 6.365638559792256013e-01 7.605478476082917494e-01
1.037597656250000000e-01 -7.717132568359375000e-03 -2.248535156250000000e-01 -1.120367770726459211e-01 6.507527848712938434e-01 7.509784108517566503e-01
1.047973632812500000e-01 -7.717132568359375000e-03 -2.248535156250000000e-01 -8.446364379237118747e-02 6.748639501899972304e-01 7.330924509304870273e-01
1.058959960937500000e-01 -7.717132568359375000e-03 -2.248535156250000000e-01 -3.642070831909696715e-02 6.921289289108779608e-01 7.208544081645169577e-01
1.069335937500000000e-01 -7.717132568359375000e-03 -2.248535156250000000e-01 -6.700373218343846395e-03 6.902299378849842126e-01 7.235590769564194114e-01
1.079711914062500000e-01 -7.717132568359375000e-03 -2.248535156250000000e-01 3.138884589081836901e-03 -7.021241636563754218e-01 -7.120476151307379986e-01
1.090698242187500000e-01 -7.717132568359375000e-03 -2.248535156250000000e-01 7.635605368945422126e-04 -7.013875548008938754e-01 -7.127797099705700523e-01
-1.284179687500000000e-01 -8.689880371093750000e-03 -2.227783203125000000e-01 -3.540024748257520476e-02 -6.260555478675741137e-01 -7.789745011631670213e-01
-1.273193359375000000e-01 -8.689880371093750000e-03 -2.227783203125000000e-01 3.139489998044119740e-02 6.174046561203734296e-01 7.860189888648374534e-01
-1.263427734375000000e-01 -8.689880371093750000e-03 -2.227783203125000000e-01 6.239120034992355276e-03 6.106306760678664736e-01 7.918909336683236377e-01
-1.252441406250000000e-01 -8.689880371093750000e-03 -2.227783203125000000e-01 -7.188073258647336523e-04 6.160700791459483572e-01 7.876910186723808938e-01
-1.242065429687500000e-01 -8.689880371093750000e-03 -2.227783203125000000e-01 -5.596730548087085763e-04 6.160757289422130745e-01 7.876867289566280572e-01
-1.231689453125000000e-01 -8.689880371093750000e-03 -2.227783203125000000e-01 -5.578844538356608112e-04 6.160761746698925068e-01 7.876863816069491486e-01
-1.221313476562500000e-01 -8.689880371093750000e-03 -2.227783203125000000e-01 -4.263436768719391749e-04 6.160809917928391499e-01 7.876826961299967511e-01
-1.210937500000000000e-01 -8.689880371093750000e-03 -2.227783203125000000e-01 -3.588153754347951901e-04 6.160826217461558008e-01 7.876814549257267206e-01
-1.200561523437500000e-01 -8.689880371093750000e-03 -2.227783203125000000e-01 -2.934904069486502171e-04 6.160839625746453718e-01 7.876804332479662163e-01
-1.190185546875000000e-01 -8.689880371093750000e-03 -2.227783203125000000e-01 -2.338677413705696900e-02 6.079175932361278178e-01 7.936556297472200372e-01
-1.179199218750000000e-01 -8.689880371093750000e-03 -2.227783203125000000e-01 -3.740053575966104105e-02 5.992356185192247997e-01 7.996986141183266561e-01
-1.168823242187500000e-01 -8.689880371093750000e-03 -2.227783203125000000e-01 -4.298973632726749844e-02 5.904412389635342873e-01 8.059348769607371787e-01
-1.158447265625000000e-01 -8.689880371093750000e-03 -2.227783203125000000e-01 -4.036269221038971816e-02 5.814917298967485770e-01 8.125504422121843096e-01
-1.148071289062500000e-01 -8.689880371093750000e-03 -2.227783203125000000e-01 -2.905552916976017128e-02 5.721604635295236552e-01 8.196268542442628480e-01
-1.137695312500000000e-01 -8.689880371093750000e-03 -2.227783203125000000e-01 1.415603472424340620e-02 5.714035646741749686e-01 8.205471180611945137e-01
-1.127319335937500000e-01 -8.689880371093750000e-03 -2.227783203125000000e-01 4.310698987482750044e-02 5.835128751273386261e-01 8.109590075858078562e-01
-1.116333007812500000e-01 -8.689880371093750000e-03 -2.227783203125000000e-01 4.135965244525480200e-02 5.848826835741428587e-01 8.100627294257628508e-01
-1.105957031250000000e-01 -8.689880371093750000e-03 -2.227783203125000000e-01 3.959296176823758756e-02 5.937896117632268655e-01 8.036456273386268778e-01
-1.095581054687500000e-01 -8.689880371093750000e-03 -2.227783203125000000e-01 2.949270113691643963e-02 6.020238895452758587e-01 7.979332158748788650e-01
-1.085205078125000000e-01 -8.689880371093750000e-03 -2.227783203125000000e-01 2.564610940423928120e-02 6.208764989036426041e-01 7.834887683825345617e-01
-1.074829101562500000e-01 -8.689880371093750000e-03 -2.227783203125000000e-01 4.258623468139629067e-04 6.160785010660132510e-01 7.876846444901129951e-01
-1.064453125000000000e-01 -8.689880371093750000e-03 -2.227783203125000000e-01 4.881059946601334627e-04 6.160763225512522201e-01 7.876863122742855383e-01
-1.054077148437500000e-01 -8.689880371093750000e-03 -2.227783203125000000e-01 5.520205259743895480e-04 6.160738580674990361e-01 7.876881976259172413e-01
-1.043090820312500000e-01 -8.689880371093750000e-03 -2.227783203125000000e-01 5.838644794403905110e-04 6.160708216955701477e-01 7.876905494911149441e-01
-1.032714843750000000e-01 -8.689880371093750000e-03 -2.227783203125000000e-01 6.196040116274319264e-04 6.160674129122354348e-01 7.876931882646275307e-01
-1.022338867187500000e-01 -8.689880371093750000e-03 -2.227783203125000000e-01 6.837410454543342781e-04 6.160645549531890142e-01 7.876953704500947451e-01
-1.011962890625000000e-01 -8.689880371093750000e-03 -2.227783203125000000e-01 7.515493617904393060e-04 6.160614123377970985e-01 7.876977665335326284e-01
-1.001586914062500000e-01 -8.689880371093750000e-03 -2.227783203125000000e-01 8.165830175237687432e-04 6.160581984524408083e-01 7.877002153812759921e-01
-9.912109375000000000e-02 -8.689880371093750000e-03 -2.227783203125000000e-01 8.498507537902454763e-04 6.160543242000363628e-01 7.877032102182475182e-01
-9.808349609375000000e-02 -8.689880371093750000e-03 -2.227783203125000000e-01 9.122549387546055556e-04 6.160508038923731000e-01 7.877058936014680324e-01
-9.698486328125000000e-02 -8.689880371093750000e-03 -2.227783203125000000e-01 2.251623748352985649e-02 6.342832018127260163e-01 7.727728249283758455e-01
-9.594726562500000000e-02 -8.689880371093750000e-03 -2.227783203125000000e-01 3.517710115796304771e-02 6.508246633878903564e-01 7.584127036648066200e-01
-9.490966796875000000e-02 -8.689880371093750000e-03 -2.227783203125000000e-01 3.874458806690425638e-02 6.661874949724236883e-01 7.447772005357661262e-01
-9.387207031250000000e-02 -8.689880371093750000e-03 -2.227783203125000000e-01 3.338366794049568015e-02 6.806053220514618474e-01 7.318892855549018472e-01
-9.283447265625000000e-02 -8.689880371093750000e-03 -2.227783203125000000e-01 1.969473884321374865e-02 6.938518998697409401e-01 7.198483578567425045e-01
-9.179687500000000000e-02 -8.689880371093750000e-03 -2.227783203125000000e-01 1.860733274234021087e-02 6.941714289214415690e-01 7.195691727953468231e-01
-9.075927734375000000e-02 -8.689880371093750000e-03 -2.227783203125000000e-01 3.484345886865935354e-02 6.695000720598627275e-01 7.419943307639935703e-01
-8.966064453125000000e-02 -8.689880371093750000e-03 -2.227783203125000000e-01 3.396231174355711369e-02 6.569069211013891518e-01 7.532063849902804753e-01
-8.862304687500000000e-02 -8.689880371093750000e-03 -2.227783203125000000e-01 3.018763015468312397e-02 6.443440775152196043e-01 7.641396578876826773e-01
-8.758544921875000000e-02 -8.689880371093750000e-03 -2.227783203125000000e-01 1.778350375104678638e-02 6.310509521301734814e-01 7.755375186346163963e-01
-8.654785156250000000e-02 -8.689880371093750000e-03 -2.227783203125000000e-01 -3.196166637933899567e-03 6.166808559621757002e-01 7.872067748746708338e-01
-8.551025390625000000e-02 -8.689880371093750000e-03 -2.227783203125000000e-01 -3.141991673171775929e-03 6.166851304212322971e-01 7.872036444311428793e-01
-8.447265625000000000e-02 -8.689880371093750000e-03 -2.227783203125000000e-01 -1.127531705051615374e-02 6.175268753686323775e-01 7.864689602411935043e-01
-8.337402343750000000e-02 -8.689880371093750000e-03 -2.227783203125000000e-01 -2.731056571349129575e-02 6.309412463643854219e-01 7.753497769629943415e-01
-8.233642578125000000e-02 -8.689880371093750000e-03 -2.227783203125000000e-01 -3.340693637569682600e-02 6.430582180160988592e-01 7.650882987237156430e-01
-8.129882812500000000e-02 -8.689880371093750000e-03 -2.227783203125000000e-01 -3.011019261006402450e-02 6.544438542674604342e-01 7.555108324256746277e-01
-8.026123046875000000e-02 -8.689880371093750000e-03 -2.227783203125000000e-01 -1.731304971467815396e-02 6.651017764954919587e-01 7.465519976613269604e-01
-7.922363281250000000e-02 -8.689880371093750000e-03 -2.227783203125000000e-01 5.133745255595192035e-03 6.745817416359901619e-01 7.381823070969698586e-01
-7.818603515625000000e-02 -8.689880371093750000e-03 -2.227783203125000000e-01 -6.586148308008031192e-04 6.873803351743502654e-01 7.262973502926349800e-01
-7.714843750000000000e-02 -8.689880371093750000e-03 -2.227783203125000000e-01 3.051433219380854183e-04 7.037361200114115034e-01 7.104613854945511786e-01
-7.604980468750000000e-02 -8.689880371093750000e-03 -2.227783203125000000e-01 1.906781083353776760e-04 7.046659759658993050e-01 7.095391644989624824e-01
-7.501220703125000000e-02 -8.689880371093750000e-03 -2.227783203125000000e-01 -1.904568939767662880e-02 6.930991792923650863e-01 7.205905837433745909e-01
-7.397460937500000000e-02 -8.689880371093750000e-03 -2.227783203125000000e-01 -2.693999577244000909e-02 6.641601698751885552e-01 7.471047485989777970e-01
-7.293701171875000000e-02 -8.689880371093750000e-03 -2.227783203125000000e-01 -6.139416552905373192e-02 6.259522297567050586e-01 7.774410347425715351e-01
-7.189941406250000000e-02 -8.689880371093750000e-03 -2.227783203125000000e-01 -6.823885048971783940e-02 6.002662110352950942e-01 7.968838906472965888e-01
-7.086181640625000000e-02 -8.689880371093750000e-03 -2.227783203125000000e-01 -5.405807911701442092e-02 5.702765893846972745e-01 8.196720903397504143e-01
-6.982421875000000000e-02 -8.689880371093750000e-03 -2.227783203125000000e-01 -8.037624080318968300e-02 5.460991081160656568e-01 8.338557573280797053e-01
-6.872558593750000000e-02 -8.689880371093750000e-03 -2.227783203125000000e-01 -8.515841463667035705e-02 5.328038841348723409e-01 8.419430298228987031e-01
-6.768798828125000000e-02 -8.689880371093750000e-03 -2.227783203125000000e-01 -8.232993495663033789e-02 5.003117394544914776e-01 8.619222384728554287e-01
-6.634521484375000000e-02 -8.651733398437500000e-03 -2.218017578125000000e-01 -1.290945716294541468e-01 5.336599404495175891e-01 8.357880470162426523e-01
-6.530761718750000000e-02 -8.651733398437500000e-03 -2.218017578125000000e-01 -2.019884227099190965e-01 4.761279670436425193e-01 8.558637952910772562e-01
-6.427001953125000000e-02 -8.651733398437500000e-03 -2.218017578125000000e-01 -2.364851492568481039e-01 4.518861430796725087e-01 8.601591061388259574e-01
-6.323242187500000000e-02 -8.651733398437500000e-03 -2.218017578125000000e-01 -2.609152590335792055e-01 4.592628259629982224e-01 8.491177093265227516e-01
-6.192016601562500000e-02 -8.613586425781250000e-03 -2.208251953125000000e-01 3.113206864420497988e-01 -4.633776009212404734e-01 -8.296750141818944879e-01
-6.088256835937500000e-02 -8.613586425781250000e-03 -2.208251953125000000e-01 3.693212259119450502e-01 -4.804704584498647457e-01 -7.954558257049062497e-01
-4.943847656250000000e-02 -7.793426513671875000e-03 -1.997070312500000000e-01 1.744575757311008224e-01 -4.029288170558492643e-01 -8.984502894740484802e-01
-4.824829101562500000e-02 -7.751464843750000000e-03 -1.987304687500000000e-01 1.615395611991944647e-01 -4.486413738136213469e-01 -8.789914037521633361e-01
-4.733276367187500000e-02 -7.751464843750000000e-03 -1.987304687500000000e-01 -1.360687738670285363e-01 4.737935513035326784e-01 8.700603194730295309e-01
-4.638671875000000000e-02 -7.751464843750000000e-03 -1.987304687500000000e-01 -1.226101547026794691e-01 4.412842874783253211e-01 8.889515890016349564e-01
-4.547119140625000000e-02 -7.751464843750000000e-03 -1.987304687500000000e-01 -5.076828568915352918e-02 4.719773585994898046e-01 8.801476888213891625e-01
-4.452514648437500000e-02 -7.751464843750000000e-03 -1.987304687500000000e-01 -4.714711084225179684e-03 5.457121232972427238e-01 8.379594560513100587e-01
-4.357910156250000000e-02 -7.751464843750000000e-03 -1.987304687500000000e-01 4.571703500432106743e-02 5.864387884121358141e-01 8.087023557255906825e-01
-4.266357421875000000e-02 -7.751464843750000000e-03 -1.987304687500000000e-01 9.112194638384188417e-02 6.023327337009606319e-01 7.930271551463718982e-01
-4.171752929687500000e-02 -7.751464843750000000e-03 -1.987304687500000000e-01 1.678416608589839709e-01 6.367677486347915750e-01 7.525662835781821158e-01
-4.080200195312500000e-02 -7.751464843750000000e-03 -1.987304687500000000e-01 1.892746062373402149e-01 6.454587118782504351e-01 7.399717391185757220e-01
-3.985595703125000000e-02 -7.751464843750000000e-03 -1.987304687500000000e-01 1.666567372894599552e-01 6.630906027305358830e-01 7.297509057798328147e-01
-3.912353515625000000e-02 -7.793426513671875000e-03 -1.997070312500000000e-01 -2.350670467962520660e-01 -6.963372130969602836e-01 -6.781282837095404803e-01
-3.817749023437500000e-02 -7.793426513671875000e-03 -1.997070312500000000e-01 -2.580599552459027501e-01 -7.111286311759725809e-01 -6.539886309564337807e-01
-3.723144531250000000e-02 -7.793426513671875000e-03 -1.997070312500000000e-01 -3.007502645719828394e-01 -7.244446725053304004e-01 -6.202654228945274628e-01
-3.649902343750000000e-02 -7.827758789062500000e-03 -2.006835937500000000e-01 -3.772021641483584986e-01 -7.231349063818138800e-01 -5.786142363733890459e-01
-3.555297851562500000e-02 -7.827758789062500000e-03 -2.006835937500000000e-01 -4.630189526819777357e-01 -6.964006681117480557e-01 -5.483060814096405444e-01
-3.479003906250000000e-02 -7.865905761718750000e-03 -2.017822265625000000e-01 -5.071903211036985493e-01 -6.707429584311147552e-01 -5.411671293545117223e-01
-3.399658203125000000e-02 -7.911682128906250000e-03 -2.027587890625000000e-01 -5.248399649711542603e-01 -6.495863092165692354e-01 -5.500733024311155184e-01
-3.305053710937500000e-02 -7.911682128906250000e-03 -2.027587890625000000e-01 -5.414444107424096764e-01 -6.479993396251295668e-01 -5.356629592581528820e-01
-3.225708007812500000e-02 -7.949829101562500000e-03 -2.037353515625000000e-01 -6.141086562001046856e-01 -5.704854375110939291e-01 -5.453594447406930890e-01
-3.302001953125000000e-02 -8.651733398437500000e-03 -2.218017578125000000e-01 3.858273747007706644e-02 -2.539988823411483687e-01 -9.664346538378901785e-01
-3.198242187500000000e-02 -8.651733398437500000e-03 -2.218017578125000000e-01 2.078811657081564013e-02 -2.498988677986533902e-01 -9.680487643101401973e-01
-3.096008300781250000e-02 -8.651733398437500000e-03 -2.218017578125000000e-01 3.516079534548313679e-03 -2.570604124717427719e-01 -9.663889390533005885e-01
-2.990722656250000000e-02 -8.651733398437500000e-03 -2.218017578125000000e-01 5.096959226938371779e-02 2.709709600857753697e-01 9.612371400721498871e-01
-2.886962890625000000e-02 -8.651733398437500000e-03 -2.218017578125000000e-01 6.794339973737099914e-02 2.761751961631419561e-01 9.587027461400002837e-01
-2.783203125000000000e-02 -8.651733398437500000e-03 -2.218017578125000000e-01 9.232995819948731919e-02 2.628683584451672051e-01 9.604037718310065586e-01
-2.690124511718750000e-02 -8.689880371093750000e-03 -2.227783203125000000e-01 7.045862783963346976e-02 2.554515752943508078e-01 9.642510432675667209e-01
-2.574157714843750000e-02 -8.651733398437500000e-03 -2.218017578125000000e-01 6.360026868842352799e-02 2.541066262388310126e-01 9.650828090502283629e-01
-2.481079101562500000e-02 -8.689880371093750000e-03 -2.227783203125000000e-01 3.427932735328469149e-02 2.486733636181685525e-01 9.679806227105129945e-01
-2.377319335937500000e-02 -8.689880371093750000e-03 -2.227783203125000000e-01 2.026895889360038477e-02 2.468490957325792656e-01 9.688419340849040440e-01
-2.272033691406250000e-02 -8.689880371093750000e-03 -2.227783203125000000e-01 3.763420659999353046e-02 2.320538211500837444e-01 9.719746347427148381e-01
-2.166748046875000000e-02 -8.689880371093750000e-03 -2.227783203125000000e-01 -2.441159313529912139e-03 2.415239834429580290e-01 9.703917797276786494e-01
-2.062988281250000000e-02 -8.689880371093750000e-03 -2.227783203125000000e-01 6.043068862338995748e-03 2.253629649922240519e-01 9.742561343551492392e-01
-1.957702636718750000e-02 -8.689880371093750000e-03 -2.227783203125000000e-01 -2.269555844275736659e-02 2.599755433831315576e-01 9.653484492501227532e-01
-1.853942871093750000e-02 -8.689880371093750000e-03 -2.227783203125000000e-01 -4.001196763151742414e-02 2.981039537259918548e-01 9.536944349314334657e-01
-1.748657226562500000e-02 -8.689880371093750000e-03 -2.227783203125000000e-01 -6.064496935317800069e-02 3.516160337868712293e-01 9.341779019416707186e-01
-1.643371582031250000e-02 -8.689880371093750000e-03 -2.227783203125000000e-01 -5.481038542334907421e-02 4.256642540942469632e-01 9.032196656606478191e-01
-1.532745361328125000e-02 -8.651733398437500000e-03 -2.218017578125000000e-01 -1.457786579350776324e-01 4.012219107260531770e-01 9.043061214234827672e-01
-1.428985595703125000e-02 -8.651733398437500000e-03 -2.218017578125000000e-01 -1.408187124681253566e-01 4.095027551782066677e-01 9.013753844654718295e-01
-1.324462890625000000e-02 -8.651733398437500000e-03 -2.218017578125000000e-01 2.328876987037175605e-01 -3.861442836108106569e-01 -8.925558313221533258e-01
-1.214599609375000000e-02 -8.613586425781250000e-03 -2.208251953125000000e-01 3.163448744333195450e-01 -3.768973507920577171e-01 -8.705597666936457646e-01
-5.466461181640625000e-03 -7.949829101562500000e-03 -2.037353515625000000e-01 3.930949931255226515e-01 -3.666419402316665188e-01 -8.432378158282538561e-01
-4.489898681640625000e-03 -7.911682128906250000e-03 -2.027587890625000000e-01 3.974611486626380974e-01 -4.062212197202745845e-01 -8.228055395734454880e-01
-3.536224365234375000e-03 -7.911682128906250000e-03 -2.027587890625000000e-01 4.747745044342880916e-01 -3.916853038736601289e-01 -7.881445252417699221e-01
-2.571105957031250000e-03 -7.865905761718750000e-03 -2.017822265625000000e-01 -4.811539262698373287e-01 4.777688854281602615e-01 7.350018988763590277e-01
-1.624107360839843750e-03 -7.865905761718750000e-03 -2.017822265625000000e-01 -5.016239311047887561e-01 4.936921518367365924e-01 7.103812293112697906e-01
-6.737709045410156250e-04 -7.827758789062500000e-03 -2.006835937500000000e-01 -4.653806415240157035e-01 5.909970313427543864e-01 6.588955664130295986e-01
2.675056457519531250e-04 -7.793426513671875000e-03 -1.997070312500000000e-01 -3.795566204580053116e-01 6.324853267235914789e-01 6.752029941771950927e-01
1.205444335937500000e-03 -7.793426513671875000e-03 -1.997070312500000000e-01 -2.587363093200558684e-01 6.563554040044857762e-01 7.086981768521383174e-01
2.132415771484375000e-03 -7.751464843750000000e-03 -1.987304687500000000e-01 -1.970323150220320840e-01 6.609272972555364500e-01 7.241224858955497279e-01
3.065109252929687500e-03 -7.751464843750000000e-03 -1.987304687500000000e-01 -1.760228350560237298e-01 6.390905106082879206e-01 7.487184255708402292e-01
3.997802734375000000e-03 -7.751464843750000000e-03 -1.987304687500000000e-01 -1.521883115092494410e-01 6.371552626447479772e-01 7.555606455633234741e-01
4.932403564453125000e-03 -7.751464843750000000e-03 -1.987304687500000000e-01 -1.042298409109347346e-01 6.454032814193946255e-01 7.566972608624660257e-01
5.867004394531250000e-03 -7.751464843750000000e-03 -1.987304687500000000e-01 -5.511134351427251360e-02 6.414309254508578917e-01 7.651987373821964589e-01
6.797790527343750000e-03 -7.751464843750000000e-03 -1.987304687500000000e-01 3.900445932617910630e-03 6.416736750591456317e-01 7.669678489073821215e-01
7.732391357421875000e-03 -7.751464843750000000e-03 -1.987304687500000000e-01 4.377610453558033327e-02 6.204014413113586590e-01 7.830617499855797581e-01
8.666992187500000000e-03 -7.751464843750000000e-03 -1.987304687500000000e-01 1.024568406365669176e-01 5.985119136694577735e-01 7.945351376764256957e-01
9.597778320312500000e-03 -7.751464843750000000e-03 -1.987304687500000000e-01 -9.727247169680425243e-02 -5.845149123713831996e-01 -8.055311188684571855e-01
1.052856445312500000e-02 -7.751464843750000000e-03 -1.987304687500000000e-01 -7.938927286539090855e-02 -5.737003145153662942e-01 -8.152087416599960168e-01
1.390075683593750000e-02 -8.689880371093750000e-03 -2.227783203125000000e-01 -3.269398852951237167e-03 -7.024890509452087484e-01 -7.116870410041484796e-01
1.494598388671875000e-02 -8.689880371093750000e-03 -2.227783203125000000e-01 -4.615226466375008108e-03 -6.913759326633235336e-01 -7.224804630013073048e-01
1.599121093750000000e-02 -8.689880371093750000e-03 -2.227783203125000000e-01 1.685477287942910079e-03 6.767794103983816312e-01 7.361839368168329178e-01
1.704406738281250000e-02 -8.689880371093750000e-03 -2.227783203125000000e-01 -7.247235947501576856e-04 7.037222084873169248e-01 7.104748609609241594e-01
1.808166503906250000e-02 -8.689880371093750000e-03 -2.227783203125000000e-01 1.319290972698264515e-02 6.924329665968019798e-01 7.213615833289764856e-01
1.913452148437500000e-02 -8.689880371093750000e-03 -2.227783203125000000e-01 2.036943744469448675e-02 6.797324706105888348e-01 7.331772326087406810e-01
2.017211914062500000e-02 -8.689880371093750000e-03 -2.227783203125000000e-01 2.040525898891951823e-02 6.658127883290022586e-01 7.458397658365731875e-01
2.122497558593750000e-02 -8.689880371093750000e-03 -2.227783203125000000e-01 1.284790267015557298e-02 6.505265334765185647e-01 7.593748485695337447e-01
2.227783203125000000e-02 -8.689880371093750000e-03 -2.227783203125000000e-01 2.021802078913135028e-02 6.253747400483579133e-01 7.800626039907431197e-01
2.331542968750000000e-02 -8.689880371093750000e-03 -2.227783203125000000e-01 5.907142013204880193e-02 6.167217463540440869e-01 7.849616900827717236e-01
2.436828613281250000e-02 -8.689880371093750000e-03 -2.227783203125000000e-01 9.517782786238841719e-02 6.086175505044886247e-01 7.877346369820954486e-01
2.540588378906250000e-02 -8.689880371093750000e-03 -2.227783203125000000e-01 1.258306034108282179e-01 6.126426335777982457e-01 7.802792210280410368e-01
2.658081054687500000e-02 -8.728027343750000000e-03 -2.237548828125000000e-01 1.295459717179489045e-01 6.148655322307012838e-01 7.779191593516056047e-01
2.763366699218750000e-02 -8.728027343750000000e-03 -2.237548828125000000e-01 1.131314840204818567e-01 6.309852566643194827e-01 7.675017089203034493e-01
2.868652343750000000e-02 -8.728027343750000000e-03 -2.237548828125000000e-01 7.904967143050413425e-02 6.641484989532062677e-01 7.434096587917944365e-01
2.972412109375000000e-02 -8.728027343750000000e-03 -2.237548828125000000e-01 3.611979846972854929e-02 6.891881646103830139e-01 7.236815832391187975e-01
3.077697753906250000e-02 -8.728027343750000000e-03 -2.237548828125000000e-01 -2.232942450948042818e-04 -7.087598659223688369e-01 -7.054497874387559708e-01
3.182983398437500000e-02 -8.728027343750000000e-03 -2.237548828125000000e-01 -2.221219859528584563e-04 -7.087593761588085739e-01 -7.054502798700981181e-01
3.286743164062500000e-02 -8.728027343750000000e-03 -2.237548828125000000e-01 -2.205688180758115264e-04 -7.087588655344939648e-01 -7.054507933765852279e-01
3.393554687500000000e-02 -8.728027343750000000e-03 -2.237548828125000000e-01 -2.207821259918306444e-04 -7.087582333832496140e-01 -7.054514284248830647e-01
3.497314453125000000e-02 -8.728027343750000000e-03 -2.237548828125000000e-01 -2.128646426546657033e-04 -7.087579201317705246e-01 -7.054517455780592305e-01
3.604125976562500000e-02 -8.728027343750000000e-03 -2.237548828125000000e-01 -2.089373939137491353e-04 -7.087575020825617189e-01 -7.054521667603360635e-01
3.707885742187500000e-02 -8.728027343750000000e-03 -2.237548828125000000e-01 -2.084044943680229511e-04 -7.087571491270177049e-01 -7.054525215270754934e-01
3.814697265625000000e-02 -8.728027343750000000e-03 -2.237548828125000000e-01 -2.080902569732857713e-04 -7.087567302979638217e-01 -7.054529424106079638e-01
3.918457031250000000e-02 -8.728027343750000000e-03 -2.237548828125000000e-01 -2.171289557948704403e-04 -7.087558394812506490e-01 -7.054538346739949173e-01
4.022216796875000000e-02 -8.728027343750000000e-03 -2.237548828125000000e-01 -2.179280170229978028e-04 -7.087553534025753388e-01 -7.054543227811208572e-01
4.129028320312500000e-02 -8.728027343750000000e-03 -2.237548828125000000e-01 -2.180902607678828398e-04 -7.087548942661157092e-01 -7.054547840155775962e-01
4.232788085937500000e-02 -8.728027343750000000e-03 -2.237548828125000000e-01 -2.139045836999910958e-04 -7.087545265967023500e-01 -7.054551546863296885e-01
4.339599609375000000e-02 -8.728027343750000000e-03 -2.237548828125000000e-01 -2.103448121265257551e-04 -7.087541480389719650e-01 -7.054555360847423184e-01
4.443359375000000000e-02 -8.728027343750000000e-03 -2.237548828125000000e-01 -2.101736311874715605e-04 -7.087536506291876037e-01 -7.054560358710133539e-01
4.550170898437500000e-02 -8.728027343750000000e-03 -2.237548828125000000e-01 -1.607706351211020748e-03 6.912155753165294403e-01 7.226468319449877997e-01
4.653930664062500000e-02 -8.728027343750000000e-03 -2.237548828125000000e-01 -1.325946589609711471e-02 6.986442767362458506e-01 7.153463225234599765e-01
4.760742187500000000e-02 -8.728027343750000000e-03 -2.237548828125000000e-01 -2.060992587852612107e-02 6.867527265108815948e-01 7.265988739222982717e-01
4.864501953125000000e-02 -8.728027343750000000e-03 -2.237548828125000000e-01 -2.103154964823189879e-02 6.733015486030716756e-01 7.390688050297476996e-01
4.971313476562500000e-02 -8.728027343750000000e-03 -2.237548828125000000e-01 -1.419986777919299802e-02 6.581368895704430289e-01 7.527643710628153517e-01
5.075073242187500000e-02 -8.728027343750000000e-03 -2.237548828125000000e-01 7.697111904799810132e-03 6.385615006477661781e-01 7.695323023491594805e-01
5.178833007812500000e-02 -8.728027343750000000e-03 -2.237548828125000000e-01 2.970954449663016153e-02 6.581698666505270134e-01 7.522830382236663782e-01
5.285644531250000000e-02 -8.728027343750000000e-03 -2.237548828125000000e-01 3.297533901377639604e-02 6.728569573364927559e-01 7.390373075703307038e-01
5.389404296875000000e-02 -8.728027343750000000e-03 -2.237548828125000000e-01 2.906321476493903960e-02 6.861660559108129220e-01 7.268641367293657840e-01
5.496215820312500000e-02 -8.728027343750000000e-03 -2.237548828125000000e-01 1.828093236575435362e-02 6.982195452837121064e-01 7.156502456477221719e-01
5.599975585937500000e-02 -8.728027343750000000e-03 -2.237548828125000000e-01 -2.002171768778200460e-04 -7.087492127579901879e-01 -7.054604973547500268e-01
5.706787109375000000e-02 -8.728027343750000000e-03 -2.237548828125000000e-01 -9.040466263937337954e-04 -7.087794535229277049e-01 -7.054295634316989361e-01
5.810546875000000000e-02 -8.728027343750000000e-03 -2.237548828125000000e-01 4.982773622333869570e-03 6.913949190881308882e-01 7.224598520514102784e-01
5.917358398437500000e-02 -8.728027343750000000e-03 -2.237548828125000000e-01 9.912680824155988783e-04 6.774681540522059509e-01 7.355514377884698751e-01
6.021118164062500000e-02 -8.728027343750000000e-03 -2.237548828125000000e-01 1.491693785683686005e-02 6.702080700320235396e-01 7.420233337496372483e-01
