8.953857421875000000e-02 -8.526611328125000000e-02 -3.061523437500000000e-01 3.359194233939308827e-01 3.177079589205801247e-01 8.866903596099418028e-01
9.094238281250000000e-02 -8.526611328125000000e-02 -3.061523437500000000e-01 2.933947663301326725e-01 3.521283215725249383e-01 8.887773378279867353e-01
9.240722656250000000e-02 -8.526611328125000000e-02 -3.061523437500000000e-01 2.777951183285399250e-01 3.466908621314840344e-01 8.958991675112557562e-01
9.417724609375000000e-02 -8.551025390625000000e-02 -3.071289062500000000e-01 2.099791330738396411e-01 3.739450150215885560e-01 9.033680808032031884e-01
9.558105468750000000e-02 -8.551025390625000000e-02 -3.071289062500000000e-01 2.120888909811097234e-01 4.109511938831951761e-01 8.866439074219025773e-01
9.704589843750000000e-02 -8.551025390625000000e-02 -3.071289062500000000e-01 1.696195998632645252e-01 4.502159503719928013e-01 8.766611599545570677e-01
9.881591796875000000e-02 -8.581542968750000000e-02 -3.081054687500000000e-01 1.270198506465359534e-01 4.865699495381882733e-01 8.643585145922589863e-01
1.002807617187500000e-01 -8.581542968750000000e-02 -3.081054687500000000e-01 8.859651229983196707e-02 5.355579188154458992e-01 8.398383020572316449e-01
1.016845703125000000e-01 -8.581542968750000000e-02 -3.081054687500000000e-01 8.081672514983669064e-02 5.630391751315186877e-01 8.224691752298530778e-01
1.031494140625000000e-01 -8.581542968750000000e-02 -3.081054687500000000e-01 5.345927670916599678e-02 5.904783153830409637e-01 8.052809849960065325e-01
1.046142578125000000e-01 -8.581542968750000000e-02 -3.081054687500000000e-01 2.518027349027851872e-02 6.356849672412296925e-01 7.715377996251846504e-01
1.060180664062500000e-01 -8.581542968750000000e-02 -3.081054687500000000e-01 -3.918713781694932951e-05 6.407138257682580829e-01 7.677797808836660520e-01
1.074829101562500000e-01 -8.581542968750000000e-02 -3.081054687500000000e-01 6.643419787178561631e-02 6.570059037136621871e-01 7.509525549850180060e-01
1.089477539062500000e-01 -8.581542968750000000e-02 -3.081054687500000000e-01 1.195522139223248043e-01 6.683578244597996321e-01 7.341696579331198347e-01
1.104125976562500000e-01 -8.581542968750000000e-02 -3.081054687500000000e-01 1.366275882512479611e-01 6.918149654554185402e-01 7.090309977007812625e-01
1.121826171875000000e-01 -8.612060546875000000e-02 -3.090820312500000000e-01 1.253633976324533272e-01 6.879911296718914659e-01 7.148092221193301787e-01
1.136474609375000000e-01 -8.612060546875000000e-02 -3.090820312500000000e-01 9.116217861781605869e-02 6.730746194518369974e-01 7.339346114194494897e-01
1.151123046875000000e-01 -8.612060546875000000e-02 -3.090820312500000000e-01 2.017167342835203894e-02 6.533882506722091810e-01 7.567541856340210815e-01
1.165771484375000000e-01 -8.612060546875000000e-02 -3.090820312500000000e-01 5.901449980258671561e-04 6.397918134129854106e-01 7.685480383285125949e-01
1.179809570312500000e-01 -8.612060546875000000e-02 -3.090820312500000000e-01 5.973201177345031703e-04 6.397900434861223395e-01 7.685495061898762748e-01
1.194458007812500000e-01 -8.612060546875000000e-02 -3.090820312500000000e-01 6.022289324110193876e-04 6.397887014082273005e-01 7.685506195890333681e-01
1.209106445312500000e-01 -8.612060546875000000e-02 -3.090820312500000000e-01 6.055944158729650688e-04 6.397870828835404700e-01 7.685519643009007806e-01
1.223754882812500000e-01 -8.612060546875000000e-02 -3.090820312500000000e-01 1.069728827220537689e-04 6.387520302750171464e-01 7.694126541566275179e-01
1.238403320312500000e-01 -8.612060546875000000e-02 -3.090820312500000000e-01 1.235441777148065293e-04 6.387530197215325334e-01 7.694118302531222087e-01
1.252441406250000000e-01 -8.612060546875000000e-02 -3.090820312500000000e-01 1.192584792871449409e-04 6.387524199512099043e-01 7.694123288483805112e-01
1.267089843750000000e-01 -8.612060546875000000e-02 -3.090820312500000000e-01 1.518102879611830003e-04 6.387544178814744678e-01 7.694106644637406234e-01
1.281738281250000000e-01 -8.612060546875000000e-02 -3.090820312500000000e-01 1.354900527696445488e-04 6.387527736345557372e-01 7.694120325395280569e-01
1.296386718750000000e-01 -8.612060546875000000e-02 -3.090820312500000000e-01 1.174497908957703498e-04 6.387514392052228152e-01 7.694131433234054906e-01
1.311035156250000000e-01 -8.612060546875000000e-02 -3.090820312500000000e-01 1.076527429454249670e-04 6.387507461720743906e-01 7.694137200983000024e-01
1.324462890625000000e-01 -8.612060546875000000e-02 -3.090820312500000000e-01 1.688267960870119984e-04 6.386955364431262661e-01 7.694595396933747722e-01
1.339111328125000000e-01 -8.612060546875000000e-02 -3.090820312500000000e-01 1.929795533885006020e-04 6.386964941364997594e-01 7.694587390735360133e-01
1.353759765625000000e-01 -8.612060546875000000e-02 -3.090820312500000000e-01 1.007308614467414747e-04 6.387495646730899646e-01 7.694147018891902556e-01
1.368408203125000000e-01 -8.612060546875000000e-02 -3.090820312500000000e-01 8.488336341579316615e-05 6.387482934630284159e-01 7.694157591269387142e-01
1.383056640625000000e-01 -8.612060546875000000e-02 -3.090820312500000000e-01 -1.200254497504588732e-03 6.400196981353036829e-01 7.683575635001819171e-01
1.397705078125000000e-01 -8.612060546875000000e-02 -3.090820312500000000e-01 2.315913455182543740e-03 -6.397872575782370674e-01 -7.685485681369703670e-01
1.412353515625000000e-01 -8.612060546875000000e-02 -3.090820312500000000e-01 2.625965058106406388e-02 -6.268453561293571008e-01 -7.787010531971948479e-01
-1.088256835937500000e-01 -8.666992187500000000e-02 -3.061523437500000000e-01 -1.586239204405427358e-02 -6.741980035488097656e-01 -7.383802790767372004e-01
-1.074218750000000000e-01 -8.666992187500000000e-02 -3.061523437500000000e-01 4.185231730329967703e-03 6.624141552619343676e-01 7.491261380728757580e-01
-1.059570312500000000e-01 -8.666992187500000000e-02 -3.061523437500000000e-01 2.366282897146279249e-02 6.609550076333122748e-01 7.500523637783668152e-01
-1.045532226562500000e-01 -8.666992187500000000e-02 -3.061523437500000000e-01 5.765919466877906380e-02 6.534921561726929617e-01 7.547340055217548471e-01
-1.030883789062500000e-01 -8.666992187500000000e-02 -3.061523437500000000e-01 4.250114151600382223e-02 6.544591855811922043e-01 7.549018660582575979e-01
-1.019897460937500000e-01 -8.697509765625000000e-02 -3.071289062500000000e-01 1.972246541925702645e-02 6.500081467695435489e-01 7.596712667272663699e-01
-1.005249023437500000e-01 -8.697509765625000000e-02 -3.071289062500000000e-01 -5.652785238593545543e-03 6.495829780462737402e-01 7.602696894205244194e-01
-9.875488281250000000e-02 -8.666992187500000000e-02 -3.061523437500000000e-01 -3.357238076650861935e-02 6.492651431322827849e-01 7.598208138522429822e-01
-9.735107421875000000e-02 -8.666992187500000000e-02 -3.061523437500000000e-01 -6.738632064469218808e-02 6.513539965278736243e-01 7.557757967791358666e-01
-9.588623046875000000e-02 -8.666992187500000000e-02 -3.061523437500000000e-01 -5.912973119382194942e-02 6.585793699834052717e-01 7.501845695035371797e-01
-9.448242187500000000e-02 -8.666992187500000000e-02 -3.061523437500000000e-01 1.236557468289516404e-01 -6.685937430369294221e-01 -7.332746163941873396e-01
-8.544921875000000000e-02 -8.215332031250000000e-02 -2.900390625000000000e-01 2.075492366607871730e-01 -5.683861039844990970e-02 -9.765719055602091192e-01
-8.404541015625000000e-02 -8.215332031250000000e-02 -2.900390625000000000e-01 -1.393680054909954003e-01 -2.499340230260749599e-02 9.899251935812130032e-01
-8.270263671875000000e-02 -8.215332031250000000e-02 -2.900390625000000000e-01 -8.978266120655180316e-02 -9.017672873221296848e-02 9.918705718700531193e-01
-8.135986328125000000e-02 -8.215332031250000000e-02 -2.900390625000000000e-01 -6.226762284514888307e-02 -5.031130583010611640e-02 9.967906077260578757e-01
-7.995605468750000000e-02 -8.215332031250000000e-02 -2.900390625000000000e-01 -4.958985411811171751e-02 -2.928936449093284822e-02 9.983401121342674323e-01
-7.861328125000000000e-02 -8.215332031250000000e-02 -2.900390625000000000e-01 -1.486913756250886863e-02 -5.204977110121151995e-02 9.985337901525709325e-01
-7.727050781250000000e-02 -8.215332031250000000e-02 -2.900390625000000000e-01 -5.119340772404318458e-03 -7.476480812456630376e-02 9.971880543890168092e-01
-7.586669921875000000e-02 -8.215332031250000000e-02 -2.900390625000000000e-01 -1.037378669132702630e-02 -1.035069048419968857e-01 9.945746353088402714e-01
-7.452392578125000000e-02 -8.215332031250000000e-02 -2.900390625000000000e-01 -4.261834771884127210e-02 -1.128130442615880719e-01 9.927018149888459098e-01
-7.318115234375000000e-02 -8.215332031250000000e-02 -2.900390625000000000e-01 -6.405444514128379174e-02 -1.304001909508912815e-01 9.893901243986689131e-01
-7.153320312500000000e-02 -8.184814453125000000e-02 -2.890625000000000000e-01 -1.579320442447178507e-01 -1.342241825157793889e-01 9.782848962488662758e-01
-7.019042968750000000e-02 -8.184814453125000000e-02 -2.890625000000000000e-01 -1.419721811170586157e-01 -1.182703471137592638e-01 9.827797437790707358e-01
-6.884765625000000000e-02 -8.184814453125000000e-02 -2.890625000000000000e-01 -7.935842386601528464e-02 -9.815621923733071352e-02 9.920018130963950131e-01
-6.744384765625000000e-02 -8.184814453125000000e-02 -2.890625000000000000e-01 -5.101470928490627749e-02 -8.772058107704050478e-02 9.948379763017105581e-01
-6.610107421875000000e-02 -8.184814453125000000e-02 -2.890625000000000000e-01 -1.503976295140120080e-02 -1.107707987917215531e-01 9.937321750177003921e-01
-6.475830078125000000e-02 -8.184814453125000000e-02 -2.890625000000000000e-01 2.502128243719563272e-02 -1.524911701066197223e-01 9.879880457094164514e-01
-6.341552734375000000e-02 -8.184814453125000000e-02 -2.890625000000000000e-01 7.512459936203037814e-02 -1.505371567422552348e-01 9.857458389517309572e-01
-6.204223632812500000e-02 -8.184814453125000000e-02 -2.890625000000000000e-01 1.938775767067166533e-01 -1.637487061702276869e-01 9.672630699442150704e-01
-6.069946289062500000e-02 -8.184814453125000000e-02 -2.890625000000000000e-01 2.547610777900534140e-01 -1.695942771264076776e-01 9.520160578526085660e-01
-5.953979492187500000e-02 -8.215332031250000000e-02 -2.900390625000000000e-01 3.750429091424204997e-01 -2.451818064595409352e-01 8.939959161446020541e-01
-5.838012695312500000e-02 -8.239746093750000000e-02 -2.910156250000000000e-01 4.593015870038687498e-01 -3.138683429879834952e-01 8.309805746500367185e-01
-5.722045898437500000e-02 -8.270263671875000000e-02 -2.919921875000000000e-01 5.443044478461355196e-01 -3.437948986035289090e-01 7.652043751502619617e-01
-5.603027343750000000e-02 -8.300781250000000000e-02 -2.929687500000000000e-01 5.909056396324724458e-01 -3.823760968823525230e-01 7.103654310167101249e-01
-5.484008789062500000e-02 -8.325195312500000000e-02 -2.939453125000000000e-01 6.259707962150126148e-01 -3.758588733566184947e-01 6.832939847569541314e-01
-5.383300781250000000e-02 -8.386230468750000000e-02 -2.961425781250000000e-01 6.624059164635202057e-01 -4.204245022775794371e-01 6.200497074580177959e-01
-5.261230468750000000e-02 -8.410644531250000000e-02 -2.971191406250000000e-01 6.860979419413693048e-01 -4.171598537537705154e-01 5.960262330467933634e-01
-5.157470703125000000e-02 -8.471679687500000000e-02 -2.990722656250000000e-01 6.889201633267103553e-01 -3.720777981465573925e-01 6.220507380337302328e-01
-5.050659179687500000e-02 -8.526611328125000000e-02 -3.010253906250000000e-01 6.502576298252137343e-01 -2.829083437985711047e-01 7.050729635032425557e-01
-4.925537109375000000e-02 -8.557128906250000000e-02 -3.020019531250000000e-01 6.220283566812018217e-01 -2.089257530591532297e-01 7.546063564489430275e-01
-4.797363281250000000e-02 -8.581542968750000000e-02 -3.029785156250000000e-01 6.060066073663009645e-01 -9.288391468261955608e-02 7.900180822118046953e-01
-4.672241210937500000e-02 -8.612060546875000000e-02 -3.039550781250000000e-01 5.738306551417543533e-01 4.515224845220806860e-02 8.177283495631633148e-01
-4.544067382812500000e-02 -8.642578125000000000e-02 -3.051757812500000000e-01 4.236189641814238072e-01 2.165223158364709688e-01 8.795823212927083024e-01
-4.415893554687500000e-02 -8.666992187500000000e-02 -3.061523437500000000e-01 3.197606368996877002e-01 2.610056666281887483e-01 9.108398196595717256e-01
-4.272460937500000000e-02 -8.666992187500000000e-02 -3.061523437500000000e-01 2.838418356747390292e-01 3.337950121601048203e-01 8.988963801116510721e-01
-4.129028320312500000e-02 -8.666992187500000000e-02 -3.061523437500000000e-01 2.276025148794730280e-01 4.168349919996950370e-01 8.800259568132938748e-01
-3.982543945312500000e-02 -8.666992187500000000e-02 -3.061523437500000000e-01 2.215359631521159889e-01 4.517663967212307008e-01 8.641926520306567605e-01
-3.851318359375000000e-02 -8.697509765625000000e-02 -3.071289062500000000e-01 1.521730655639865204e-01 5.258038618260935104e-01 8.368832995141108899e-01
-3.707885742187500000e-02 -8.697509765625000000e-02 -3.071289062500000000e-01 1.075735443329591812e-01 5.523927163425120801e-01 8.266137063292537945e-01
-3.564453125000000000e-02 -8.697509765625000000e-02 -3.071289062500000000e-01 6.871744847784579113e-02 5.831866196260970803e-01 8.094265123924350158e-01
-3.421020507812500000e-02 -8.697509765625000000e-02 -3.071289062500000000e-01 3.452612035904838866e-02 6.203883531088792980e-01 7.835344525544521987e-01
-3.274536132812500000e-02 -8.697509765625000000e-02 -3.071289062500000000e-01 9.262584443729562998e-05 6.431790293764596544e-01 7.657158269167538833e-01
-3.131103515625000000e-02 -8.697509765625000000e-02 -3.071289062500000000e-01 9.047064887903513144e-05 6.431788539650944436e-01 7.657159745148388597e-01
-2.987670898437500000e-02 -8.697509765625000000e-02 -3.071289062500000000e-01 9.169894179873527363e-05 6.431786143955305901e-01 7.657161756000387953e-01
-2.842712402343750000e-02 -8.697509765625000000e-02 -3.071289062500000000e-01 9.282885032242690448e-05 6.431783832531953182e-01 7.657163696164595024e-01
-2.699279785156250000e-02 -8.697509765625000000e-02 -3.071289062500000000e-01 9.117591510117497861e-05 6.431781752684088138e-01 7.657165445158884420e-01
-2.554321289062500000e-02 -8.697509765625000000e-02 -3.071289062500000000e-01 9.256481634045107864e-05 6.431779215071224964e-01 7.657167575007959304e-01
-2.410888671875000000e-02 -8.697509765625000000e-02 -3.071289062500000000e-01 9.162112448873325533e-05 6.431776927069351446e-01 7.657169497991753726e-01
-2.265930175781250000e-02 -8.697509765625000000e-02 -3.071289062500000000e-01 9.270046370193274412e-05 6.431774509181282795e-01 7.657171527640495023e-01
-2.122497558593750000e-02 -8.697509765625000000e-02 -3.071289062500000000e-01 9.107034502477550795e-05 6.431772718029175051e-01 7.657173034105656528e-01
-1.977539062500000000e-02 -8.697509765625000000e-02 -3.071289062500000000e-01 9.220367478291424895e-05 6.431770391173863288e-01 7.657174987230436214e-01
-1.834106445312500000e-02 -8.697509765625000000e-02 -3.071289062500000000e-01 9.045258462426824728e-05 6.431768980055214691e-01 7.657176174611141084e-01
-1.689147949218750000e-02 -8.697509765625000000e-02 -3.071289062500000000e-01 9.133840273180540909e-05 6.431766764826525318e-01 7.657178034276240775e-01
-1.545715332031250000e-02 -8.697509765625000000e-02 -3.071289062500000000e-01 9.125479738859741598e-05 6.431764562693957910e-01 7.657179884091165345e-01
-1.401519775390625000e-02 -8.697509765625000000e-02 -3.071289062500000000e-01 9.280880989697107178e-05 6.431761629052475948e-01 7.657182346379164395e-01
-1.256561279296875000e-02 -8.697509765625000000e-02 -3.071289062500000000e-01 9.244129821354423620e-05 6.431759773745023834e-01 7.657183905215807496e-01
-1.112365722656250000e-02 -8.697509765625000000e-02 -3.071289062500000000e-01 9.239906973669324787e-05 6.431757402596592899e-01 7.657185896945766235e-01
-9.681701660156250000e-03 -8.697509765625000000e-02 -3.071289062500000000e-01 9.262097149015525294e-05 6.431754903671325074e-01 7.657187995683234494e-01
-8.239746093750000000e-03 -8.697509765625000000e-02 -3.071289062500000000e-01 -7.730198369166570546e-14 6.441357457840758416e-01 7.649111981159594231e-01
-6.801605224609375000e-03 -8.697509765625000000e-02 -3.071289062500000000e-01 -1.125061409623696678e-13 6.441357457840772849e-01 7.649111981159582019e-01
-5.355834960937500000e-03 -8.697509765625000000e-02 -3.071289062500000000e-01 -5.844145543263027652e-14 6.441357457840756195e-01 7.649111981159595341e-01
-3.913879394531250000e-03 -8.697509765625000000e-02 -3.071289062500000000e-01 -5.370954128721473215e-14 6.441357457840758416e-01 7.649111981159594231e-01
-2.471923828125000000e-03 -8.697509765625000000e-02 -3.071289062500000000e-01 -5.222635125863185574e-14 6.441357457840759526e-01 7.649111981159594231e-01
-1.030921936035156250e-03 -8.697509765625000000e-02 -3.071289062500000000e-01 -6.871571397221647181e-08 6.431632494681427392e-01 7.657290869057900018e-01
4.115104675292968750e-04 -8.697509765625000000e-02 -3.071289062500000000e-01 1.283835603713268020e-08 6.431632495755713608e-01 7.657290868155598451e-01
1.853942871093750000e-03 -8.697509765625000000e-02 -3.071289062500000000e-01 5.574689964497591249e-14 6.441357457840759526e-01 7.649111981159593121e-01
3.295898437500000000e-03 -8.697509765625000000e-02 -3.071289062500000000e-01 5.852262550814749128e-14 6.441357457840758416e-01 7.649111981159593121e-01
4.737854003906250000e-03 -8.697509765625000000e-02 -3.071289062500000000e-01 4.391095540372063795e-14 6.441357457840750644e-01 7.649111981159599782e-01
6.179809570312500000e-03 -8.697509765625000000e-02 -3.071289062500000000e-01 6.594211341034878138e-14 6.441357457840757306e-01 7.649111981159594231e-01
7.621765136718750000e-03 -8.697509765625000000e-02 -3.071289062500000000e-01 5.195409254008768390e-14 6.441357457840752865e-01 7.649111981159597562e-01
9.063720703125000000e-03 -8.697509765625000000e-02 -3.071289062500000000e-01 -9.264177040912678911e-05 6.431753964184180328e-01 7.657188784792452463e-01
1.050567626953125000e-02 -8.697509765625000000e-02 -3.071289062500000000e-01 -9.270927754071193929e-05 6.431756170784208582e-01 7.657186931248201045e-01
1.194763183593750000e-02 -8.697509765625000000e-02 -3.071289062500000000e-01 -9.286967668354389658e-05 6.431758335252992786e-01 7.657185112978918129e-01
1.338958740234375000e-02 -8.697509765625000000e-02 -3.071289062500000000e-01 -9.350782547560232644e-05 6.431759980382171227e-01 7.657183730353019913e-01
1.483154296875000000e-02 -8.697509765625000000e-02 -3.071289062500000000e-01 -9.189426065600842625e-05 6.431763108888960412e-01 7.657181104471768585e-01
1.626586914062500000e-02 -8.697509765625000000e-02 -3.071289062500000000e-01 -9.175589400229799064e-05 6.431765541632383787e-01 7.657179061218033489e-01
1.771545410156250000e-02 -8.697509765625000000e-02 -3.071289062500000000e-01 -9.018206221954743775e-05 6.431768406693131324e-01 7.657176656534943060e-01
1.916503906250000000e-02 -8.697509765625000000e-02 -3.071289062500000000e-01 -9.178864341619708065e-05 6.431770164294287051e-01 7.657175178300306140e-01
2.059936523437500000e-02 -8.697509765625000000e-02 -3.071289062500000000e-01 -9.033149403262867572e-05 6.431772912765132411e-01 7.657172871409058112e-01
2.204895019531250000e-02 -8.697509765625000000e-02 -3.071289062500000000e-01 -9.230903303094039605e-05 6.431774188255777736e-01 7.657171797680326630e-01
2.348327636718750000e-02 -8.697509765625000000e-02 -3.071289062500000000e-01 -9.098837248085821336e-05 6.431776520609979730e-01 7.657169840159078200e-01
2.493286132812500000e-02 -8.697509765625000000e-02 -3.071289062500000000e-01 -9.245313572461861401e-05 6.431778415942381866e-01 7.657168246385831489e-01
2.636718750000000000e-02 -8.697509765625000000e-02 -3.071289062500000000e-01 -9.106536232668431758e-05 6.431780836210192476e-01 7.657166215100029705e-01
2.781677246093750000e-02 -8.697509765625000000e-02 -3.071289062500000000e-01 -9.240590080649571463e-05 6.431782811782349452e-01 7.657164554074574747e-01
2.925109863281250000e-02 -8.697509765625000000e-02 -3.071289062500000000e-01 -9.152742599465123598e-05 6.431785068185166265e-01 7.657162659820107020e-01
3.070068359375000000e-02 -8.697509765625000000e-02 -3.071289062500000000e-01 -2.403241358664846838e-02 6.077558448213170594e-01 7.937602132777425989e-01
3.213500976562500000e-02 -8.697509765625000000e-02 -3.071289062500000000e-01 -2.810214848524393225e-02 5.911095088619250371e-01 8.061016175294073438e-01
3.356933593750000000e-02 -8.697509765625000000e-02 -3.071289062500000000e-01 -6.694000855161393038e-02 5.553036157493446145e-01 8.289492925329113859e-01
3.503417968750000000e-02 -8.697509765625000000e-02 -3.071289062500000000e-01 -1.048996978587498352e-01 5.172737317603517404e-01 8.493667875658094113e-01
3.646850585937500000e-02 -8.697509765625000000e-02 -3.071289062500000000e-01 -1.310202831782991129e-01 4.498754473244881424e-01 8.834284166192922783e-01
3.778076171875000000e-02 -8.666992187500000000e-02 -3.061523437500000000e-01 -2.297051426136425267e-01 4.333093276920693682e-01 8.714806790697617878e-01
3.921508789062500000e-02 -8.666992187500000000e-02 -3.061523437500000000e-01 -3.199275275756229830e-01 3.612609811984500152e-01 8.758635056690524667e-01
4.064941406250000000e-02 -8.666992187500000000e-02 -3.061523437500000000e-01 -3.838308053741645853e-01 2.752692987408500436e-01 8.814197218218690066e-01
4.196166992187500000e-02 -8.642578125000000000e-02 -3.051757812500000000e-01 -5.125146853164681549e-01 2.113112223826683622e-01 8.322717492682929485e-01
4.324340820312500000e-02 -8.612060546875000000e-02 -3.039550781250000000e-01 -5.294560913565913296e-01 8.407375322639913662e-02 8.441610340117741140e-01
4.452514648437500000e-02 -8.581542968750000000e-02 -3.029785156250000000e-01 -5.600297732626837721e-01 -4.172166130802525130e-02 8.274212687845565739e-01
4.580688476562500000e-02 -8.557128906250000000e-02 -3.020019531250000000e-01 -5.257155605567731538e-01 -1.822982028561764278e-01 8.308974152227734944e-01
4.705810546875000000e-02 -8.526611328125000000e-02 -3.010253906250000000e-01 -5.277532520705743302e-01 -2.189118615533375833e-01 8.207034189036775951e-01
4.830932617187500000e-02 -8.496093750000000000e-02 -3.000488281250000000e-01 -5.351288488534937660e-01 -3.475471719086140054e-01 7.699662839521344004e-01
4.956054687500000000e-02 -8.471679687500000000e-02 -2.990722656250000000e-01 -5.291429747557393481e-01 -4.053151745202492329e-01 7.454712077406256965e-01
5.078125000000000000e-02 -8.441162109375000000e-02 -2.980957031250000000e-01 -5.527848914003631320e-01 -4.127096739391242775e-01 7.239472279638554664e-01
5.203247070312500000e-02 -8.410644531250000000e-02 -2.971191406250000000e-01 -6.161370407737858379e-01 -4.504319446826825502e-01 6.461317282071040724e-01
5.303955078125000000e-02 -8.355712890625000000e-02 -2.949218750000000000e-01 8.025378887928314997e-01 2.154755855510132878e-01 -5.563301259894095629e-01
5.389404296875000000e-02 -8.270263671875000000e-02 -2.919921875000000000e-01 7.189939205025749347e-01 -1.251734039337993598e-01 -6.836514910595622441e-01
5.505371093750000000e-02 -8.239746093750000000e-02 -2.910156250000000000e-01 7.027120114239455706e-01 -1.665425253630284097e-01 -6.917076089260676408e-01
5.624389648437500000e-02 -8.215332031250000000e-02 -2.900390625000000000e-01 -6.208428488110110388e-01 2.552780399080734064e-01 7.412066374641556044e-01
5.740356445312500000e-02 -8.184814453125000000e-02 -2.890625000000000000e-01 -5.316519462795392670e-01 3.109650961856705864e-01 7.878114729879316380e-01
5.856323242187500000e-02 -8.154296875000000000e-02 -2.880859375000000000e-01 -4.871771102802970321e-01 3.294140209798486763e-01 8.087922267188446535e-01
5.990600585937500000e-02 -8.154296875000000000e-02 -2.880859375000000000e-01 -4.603844443883568505e-01 2.961128548621821954e-01 8.368771358751487810e-01
6.103515625000000000e-02 -8.129882812500000000e-02 -2.871093750000000000e-01 -4.165925512531550301e-01 3.174767539681912498e-01 8.518563006342136923e-01
6.240844726562500000e-02 -8.129882812500000000e-02 -2.871093750000000000e-01 -2.805717192666089543e-01 3.562195875857992466e-01 8.912839703304342720e-01
6.347656250000000000e-02 -8.099365234375000000e-02 -2.858886718750000000e-01 -2.081468613173909910e-01 3.047517317389094038e-01 9.294090951383328081e-01
6.481933593750000000e-02 -8.099365234375000000e-02 -2.858886718750000000e-01 -4.869764650471214429e-02 3.081880062691253475e-01 9.500782557330545997e-01
6.640625000000000000e-02 -8.129882812500000000e-02 -2.871093750000000000e-01 1.510769128145853513e-01 3.021097191712165952e-01 9.412255223891363709e-01
6.774902343750000000e-02 -8.129882812500000000e-02 -2.871093750000000000e-01 2.738220836146467718e-01 3.250237070073582757e-01 9.051966948725168605e-01
6.909179687500000000e-02 -8.129882812500000000e-02 -2.871093750000000000e-01 3.350924159498743782e-01 3.448320135641282924e-01 8.768146641076351999e-01
7.073974609375000000e-02 -8.154296875000000000e-02 -2.880859375000000000e-01 3.916105859550422785e-01 3.161290226326211594e-01 8.641201247611887126e-01
7.208251953125000000e-02 -8.154296875000000000e-02 -2.880859375000000000e-01 3.929251889617467741e-01 3.132292699331115648e-01 8.645792157671532419e-01
7.366943359375000000e-02 -8.184814453125000000e-02 -2.890625000000000000e-01 4.169069920493188031e-01 2.649226424569019467e-01 8.694852232752673382e-01
7.531738281250000000e-02 -8.215332031250000000e-02 -2.900390625000000000e-01 4.194179128124622680e-01 2.019758413473692338e-01 8.850391934395109850e-01
7.666015625000000000e-02 -8.215332031250000000e-02 -2.900390625000000000e-01 3.567595888762290501e-01 1.648035111429145549e-01 9.195446690943465118e-01
7.830810546875000000e-02 -8.239746093750000000e-02 -2.910156250000000000e-01 4.524552330219216434e-01 4.411274825937348126e-02 8.906954179471698874e-01
7.995605468750000000e-02 -8.270263671875000000e-02 -2.919921875000000000e-01 -5.332246045907221843e-01 1.906509573534249935e-02 -8.457588564027400668e-01
8.410644531250000000e-02 -8.557128906250000000e-02 -3.020019531250000000e-01 -6.132040436219963198e-01 -3.237605066788811214e-01 -7.205275395157821894e-01
8.605957031250000000e-02 -8.612060546875000000e-02 -3.039550781250000000e-01 -4.936268093240135935e-01 -3.209014902393945712e-01 -8.083036599439160641e-01
8.752441406250000000e-02 -8.612060546875000000e-02 -3.039550781250000000e-01 4.228125536759521630e-01 3.632437714170997922e-01 8.302309961575162767e-01
8.923339843750000000e-02 -8.642578125000000000e-02 -3.051757812500000000e-01 3.492772767028630154e-01 3.605054965976151604e-01 8.648937338782947126e-01
9.094238281250000000e-02 -8.666992187500000000e-02 -3.061523437500000000e-01 2.728821486086784875e-01 4.006603281472964073e-01 8.746465768638278515e-01
9.240722656250000000e-02 -8.666992187500000000e-02 -3.061523437500000000e-01 2.264595252433156125e-01 4.175165875534838089e-01 8.799977173517360418e-01
9.387207031250000000e-02 -8.666992187500000000e-02 -3.061523437500000000e-01 1.836783564405843339e-01 4.436573458652554591e-01 8.771718308490548122e-01
9.527587890625000000e-02 -8.666992187500000000e-02 -3.061523437500000000e-01 1.712867876483283869e-01 4.668976555692846975e-01 8.675640700265440097e-01
9.704589843750000000e-02 -8.697509765625000000e-02 -3.071289062500000000e-01 1.280709412623547983e-01 4.920015654191958188e-01 8.611226937139881965e-01
9.851074218750000000e-02 -8.697509765625000000e-02 -3.071289062500000000e-01 8.889599158057742700e-02 5.267229474400000333e-01 8.453759159811834456e-01
9.991455078125000000e-02 -8.697509765625000000e-02 -3.071289062500000000e-01 7.269514058141160473e-02 5.476433293267273239e-01 8.335479592559663642e-01
1.013793945312500000e-01 -8.697509765625000000e-02 -3.071289062500000000e-01 4.857795188525649427e-02 5.817177130975664801e-01 8.119388430535707801e-01
1.027832031250000000e-01 -8.697509765625000000e-02 -3.071289062500000000e-01 1.283090133963061055e-02 6.351750999788572383e-01 7.722615880242014175e-01
1.042480468750000000e-01 -8.697509765625000000e-02 -3.071289062500000000e-01 -6.208073217577917639e-04 6.483524760352397109e-01 7.613400563593402115e-01
1.057128906250000000e-01 -8.697509765625000000e-02 -3.071289062500000000e-01 -2.111296549718970892e-04 6.486228065596959524e-01 7.611099856360392657e-01
1.071166992187500000e-01 -8.697509765625000000e-02 -3.071289062500000000e-01 -3.442817928808178515e-04 6.479950482340159912e-01 7.616444701658656724e-01
1.085815429687500000e-01 -8.697509765625000000e-02 -3.071289062500000000e-01 5.521609037451578883e-02 6.746246488258169638e-01 7.360929062016535740e-01
1.100463867187500000e-01 -8.697509765625000000e-02 -3.071289062500000000e-01 1.043484416371443790e-01 7.002545991609495646e-01 7.062258130951016843e-01
1.118164062500000000e-01 -8.728027343750000000e-02 -3.081054687500000000e-01 -1.367140447460767072e-01 -7.013841929314124091e-01 -6.995494863661319007e-01
1.132812500000000000e-01 -8.728027343750000000e-02 -3.081054687500000000e-01 1.193286944399140626e-01 6.974596776288842781e-01 7.066191766185505596e-01
1.147460937500000000e-01 -8.728027343750000000e-02 -3.081054687500000000e-01 8.495561788565345052e-02 6.914116894309677575e-01 7.174485477773872022e-01
1.161499023437500000e-01 -8.728027343750000000e-02 -3.081054687500000000e-01 3.714269926102357205e-02 6.695795231851434659e-01 7.418110824345784948e-01
1.176147460937500000e-01 -8.728027343750000000e-02 -3.081054687500000000e-01 -4.985553721921927826e-04 6.444071674489613155e-01 7.646823876505506323e-01
1.190795898437500000e-01 -8.728027343750000000e-02 -3.081054687500000000e-01 -4.954446544353118724e-04 6.444089192063022775e-01 7.646809134416522324e-01
1.205444335937500000e-01 -8.728027343750000000e-02 -3.081054687500000000e-01 -4.848702296902457571e-04 6.444108530692231884e-01 7.646792905182253630e-01
1.219482421875000000e-01 -8.728027343750000000e-02 -3.081054687500000000e-01 -4.949535475972501129e-04 6.444111841026082255e-01 7.646790050893642610e-01
1.234130859375000000e-01 -8.728027343750000000e-02 -3.081054687500000000e-01 -4.766292269536282064e-04 6.444136572689869169e-01 7.646769325341185031e-01
1.248779296875000000e-01 -8.728027343750000000e-02 -3.081054687500000000e-01 -4.557514975619752443e-04 6.444175442225181794e-01 7.646736696060557614e-01
1.262207031250000000e-01 -8.728027343750000000e-02 -3.081054687500000000e-01 -4.476144810012659854e-04 6.444190821929384194e-01 7.646723783077870040e-01
1.276855468750000000e-01 -8.728027343750000000e-02 -3.081054687500000000e-01 -4.512209706902749651e-04 6.444195289546481575e-01 7.646719996845086076e-01
1.291503906250000000e-01 -8.728027343750000000e-02 -3.081054687500000000e-01 -4.736735064925774556e-04 6.444186148961277283e-01 7.646727564185645809e-01
1.306152343750000000e-01 -8.728027343750000000e-02 -3.081054687500000000e-01 -4.716727318578329826e-04 6.444208176774286478e-01 7.646709012828906138e-01
1.320800781250000000e-01 -8.728027343750000000e-02 -3.081054687500000000e-01 -4.702422109201143292e-04 6.444203261970915531e-01 7.646713163551364101e-01
1.335449218750000000e-01 -8.728027343750000000e-02 -3.081054687500000000e-01 -4.846850265487127169e-04 6.444201160434803732e-01 7.646714844421311774e-01
1.350097656250000000e-01 -8.728027343750000000e-02 -3.081054687500000000e-01 -5.087101218627323616e-04 6.444197685083957738e-01 7.646717617184496385e-01
1.363525390625000000e-01 -8.728027343750000000e-02 -3.081054687500000000e-01 4.739922868847703998e-04 6.437190150655118792e-01 7.652617885236392414e-01
1.378173828125000000e-01 -8.728027343750000000e-02 -3.081054687500000000e-01 -7.388920783905894834e-04 6.445868261708763702e-01 7.645307564548680102e-01
1.392822265625000000e-01 -8.728027343750000000e-02 -3.081054687500000000e-01 2.097621040838233870e-03 -6.442854172836401938e-01 -7.647822572874024560e-01
1.407470703125000000e-01 -8.728027343750000000e-02 -3.081054687500000000e-01 2.885136835291193802e-03 -6.434291261646266635e-01 -7.655002518539535394e-01
-1.099243164062500000e-01 -8.782958984375000000e-02 -3.051757812500000000e-01 -6.925358676358812221e-03 -6.652712168141207139e-01 -7.465696534723753608e-01
-1.084594726562500000e-01 -8.782958984375000000e-02 -3.051757812500000000e-01 -1.913242690728738857e-03 -6.677636061830609648e-01 -7.443709463431524842e-01
-1.070556640625000000e-01 -8.782958984375000000e-02 -3.051757812500000000e-01 2.290716455678153129e-03 6.701293968259479650e-01 7.422407588699307945e-01
-1.056518554687500000e-01 -8.782958984375000000e-02 -3.051757812500000000e-01 2.388912677961752343e-02 6.781173639783307783e-01 7.345652798034953967e-01
-1.041870117187500000e-01 -8.782958984375000000e-02 -3.051757812500000000e-01 6.436591461281777893e-02 6.823423303032631893e-01 7.281936372369426369e-01
-1.027832031250000000e-01 -8.782958984375000000e-02 -3.051757812500000000e-01 3.704491127774717230e-02 6.848091282643293809e-01 7.277802775524170320e-01
-1.013183593750000000e-01 -8.782958984375000000e-02 -3.051757812500000000e-01 1.202399469617509813e-02 6.851262092514045499e-01 7.283251340907759275e-01
-1.002197265625000000e-01 -8.813476562500000000e-02 -3.061523437500000000e-01 -1.020109317630341246e-02 6.841435367411279334e-01 7.292760511859341932e-01
-9.844970703125000000e-02 -8.782958984375000000e-02 -3.051757812500000000e-01 -3.604736996249427450e-02 6.835401618069516516e-01 7.290222454189676515e-01
-9.704589843750000000e-02 -8.782958984375000000e-02 -3.051757812500000000e-01 -4.298492812922772438e-02 6.752591007347593655e-01 7.363269944994609295e-01
-9.558105468750000000e-02 -8.782958984375000000e-02 -3.051757812500000000e-01 -1.262705251258119388e-01 6.848364744579567009e-01 7.176731552290694927e-01
-9.417724609375000000e-02 -8.782958984375000000e-02 -3.051757812500000000e-01 1.393619529474775243e-01 -6.823113409776740967e-01 -7.176555441462937335e-01
-8.544921875000000000e-02 -8.349609375000000000e-02 -2.900390625000000000e-01 2.153278174387446009e-01 2.845040351584381400e-01 -9.341795250462474609e-01
-8.435058593750000000e-02 -8.380126953125000000e-02 -2.910156250000000000e-01 -2.048756437331534785e-01 -3.130666334428223174e-01 9.273700737190646581e-01
-8.300781250000000000e-02 -8.380126953125000000e-02 -2.910156250000000000e-01 -9.869391329510719679e-02 -3.937877911624258487e-01 9.138876774581849993e-01
-8.135986328125000000e-02 -8.349609375000000000e-02 -2.900390625000000000e-01 -7.243253341107926124e-02 -1.856056239147077791e-01 9.799510602447883967e-01
-7.995605468750000000e-02 -8.349609375000000000e-02 -2.900390625000000000e-01 -4.464671902175463419e-02 -1.998067290653430528e-01 9.788176242287432993e-01
-7.861328125000000000e-02 -8.349609375000000000e-02 -2.900390625000000000e-01 -2.260014694835217261e-02 -1.667510613334915182e-01 9.857399844289908009e-01
-7.727050781250000000e-02 -8.349609375000000000e-02 -2.900390625000000000e-01 4.413573018278685485e-03 -2.422609401318765177e-01 9.702010911453519126e-01
-7.586669921875000000e-02 -8.349609375000000000e-02 -2.900390625000000000e-01 -1.379739361300611963e-02 -3.138343652072157486e-01 9.493774924362130552e-01
-7.452392578125000000e-02 -8.349609375000000000e-02 -2.900390625000000000e-01 -4.106523533435828266e-02 -3.118477998438833887e-01 9.492442236745309847e-01
-7.318115234375000000e-02 -8.349609375000000000e-02 -2.900390625000000000e-01 -6.449044753718226330e-02 -2.980613787377782153e-01 9.523656843258205829e-01
-7.177734375000000000e-02 -8.349609375000000000e-02 -2.900390625000000000e-01 -1.102636051580911797e-01 -3.425980994504700949e-01 9.329890029525891304e-01
-7.043457031250000000e-02 -8.349609375000000000e-02 -2.900390625000000000e-01 -1.198282662174019464e-01 -3.492382373010259888e-01 9.293405405028899446e-01
-6.909179687500000000e-02 -8.349609375000000000e-02 -2.900390625000000000e-01 -1.089212175218745582e-01 -3.427121703085131421e-01 9.331047833421396431e-01
-6.744384765625000000e-02 -8.319091796875000000e-02 -2.890625000000000000e-01 -6.151233499214953798e-02 -2.612976733352758707e-01 9.632962984219264335e-01
-6.610107421875000000e-02 -8.319091796875000000e-02 -2.890625000000000000e-01 -1.415526885406436647e-02 -2.562451024243793118e-01 9.665081871599373597e-01
-6.475830078125000000e-02 -8.319091796875000000e-02 -2.890625000000000000e-01 1.116235159362870787e-02 -2.591647522242131463e-01 9.657686229690123358e-01
-6.341552734375000000e-02 -8.319091796875000000e-02 -2.890625000000000000e-01 1.020365139397624993e-01 -2.767461857862946184e-01 9.555103863777506534e-01
-6.228637695312500000e-02 -8.349609375000000000e-02 -2.900390625000000000e-01 1.994037442879387501e-01 -3.693957684911432504e-01 9.076259763717585693e-01
-6.091308593750000000e-02 -8.349609375000000000e-02 -2.900390625000000000e-01 2.992103090952257238e-01 -3.703072905699014150e-01 8.794007627253447312e-01
-5.975341796875000000e-02 -8.380126953125000000e-02 -2.910156250000000000e-01 4.060416948989410968e-01 -4.357299365252179646e-01 8.032867261565603823e-01
-5.838012695312500000e-02 -8.380126953125000000e-02 -2.910156250000000000e-01 4.711334395038812017e-01 -4.129617536299736158e-01 7.794202154294561646e-01
-5.740356445312500000e-02 -8.435058593750000000e-02 -2.929687500000000000e-01 5.370781652011630269e-01 -4.628401389664993371e-01 7.052134784769955589e-01
-5.621337890625000000e-02 -8.465576171875000000e-02 -2.939453125000000000e-01 5.789510613574471165e-01 -4.629752914259263608e-01 6.711702824784215871e-01
-5.502319335937500000e-02 -8.496093750000000000e-02 -2.949218750000000000e-01 6.154409442098346394e-01 -4.709146874501480284e-01 6.320378163795555837e-01
-5.401611328125000000e-02 -8.551025390625000000e-02 -2.971191406250000000e-01 6.498149853676071785e-01 -4.531667632766731568e-01 6.102297677539503251e-01
-5.279541015625000000e-02 -8.581542968750000000e-02 -2.980957031250000000e-01 6.715496606468691621e-01 -4.002211530916341964e-01 6.235736379154247500e-01
-5.172729492187500000e-02 -8.636474609375000000e-02 -3.000488281250000000e-01 6.327186741156374250e-01 -3.122908555868929570e-01 7.086194330824946430e-01
-5.050659179687500000e-02 -8.666992187500000000e-02 -3.010253906250000000e-01 6.134837247314306463e-01 -2.107437985272042069e-01 7.610681775452021736e-01
-4.925537109375000000e-02 -8.697509765625000000e-02 -3.020019531250000000e-01 5.661821529784100138e-01 -1.173816679716761235e-01 8.158794725159589367e-01
-4.797363281250000000e-02 -8.728027343750000000e-02 -3.029785156250000000e-01 4.838127034181541886e-01 9.141649646911850779e-02 8.703839912271645884e-01
-4.672241210937500000e-02 -8.752441406250000000e-02 -3.039550781250000000e-01 4.562628264440955483e-01 2.374130336632465088e-01 8.575892283908767011e-01
-4.544067382812500000e-02 -8.782958984375000000e-02 -3.051757812500000000e-01 3.352176581989630977e-01 3.396282141850634484e-01 8.787956518787901627e-01
-4.400634765625000000e-02 -8.782958984375000000e-02 -3.051757812500000000e-01 2.875749212904301633e-01 3.978116003260831479e-01 8.712328020057574784e-01
-4.257202148437500000e-02 -8.782958984375000000e-02 -3.051757812500000000e-01 2.299122754722908446e-01 4.652688740056705186e-01 8.547895767197029038e-01
-4.113769531250000000e-02 -8.782958984375000000e-02 -3.051757812500000000e-01 1.839445244516752231e-01 4.969881355479895402e-01 8.480372663089636998e-01
-3.982543945312500000e-02 -8.813476562500000000e-02 -3.061523437500000000e-01 1.626889106032410326e-01 5.377166347033943694e-01 8.272805685678753518e-01
-3.839111328125000000e-02 -8.813476562500000000e-02 -3.061523437500000000e-01 1.067278911660570762e-01 5.756304524694776381e-01 8.107149557255192152e-01
-3.695678710937500000e-02 -8.813476562500000000e-02 -3.061523437500000000e-01 6.630585999155302890e-02 6.064718558095804068e-01 7.923354220541096726e-01
-3.552246093750000000e-02 -8.813476562500000000e-02 -3.061523437500000000e-01 3.236340179447941279e-02 6.438487012969403844e-01 7.644680896299939077e-01
-3.408813476562500000e-02 -8.813476562500000000e-02 -3.061523437500000000e-01 -1.882630409439182148e-03 6.637476110313383915e-01 7.479542529813789642e-01
-3.265380859375000000e-02 -8.813476562500000000e-02 -3.061523437500000000e-01 -1.883601798967850585e-03 6.637530217770314378e-01 7.479494489109025368e-01
-3.121948242187500000e-02 -8.813476562500000000e-02 -3.061523437500000000e-01 -1.872935769013818171e-03 6.637569082885230731e-01 7.479460266696162929e-01
-2.978515625000000000e-02 -8.813476562500000000e-02 -3.061523437500000000e-01 -1.874905722668853639e-03 6.637609388810489230e-01 7.479424448072723441e-01
-2.833557128906250000e-02 -8.813476562500000000e-02 -3.061523437500000000e-01 -1.879048552600227646e-03 6.637650447238412355e-01 7.479387906635770467e-01
-2.690124511718750000e-02 -8.813476562500000000e-02 -3.061523437500000000e-01 -1.886194925027004322e-03 6.637699040084507063e-01 7.479344602311870371e-01
-2.546691894531250000e-02 -8.813476562500000000e-02 -3.061523437500000000e-01 -1.888038709324764159e-03 6.637741811484382248e-01 7.479306597209076646e-01
-2.403259277343750000e-02 -8.813476562500000000e-02 -3.061523437500000000e-01 -1.892275611989448604e-03 6.637789726528258161e-01 7.479263966173191891e-01
-2.258300781250000000e-02 -8.813476562500000000e-02 -3.061523437500000000e-01 -1.909402528385891829e-03 6.637837095899912221e-01 7.479221490669564210e-01
-2.114868164062500000e-02 -8.813476562500000000e-02 -3.061523437500000000e-01 -1.909368918176536150e-03 6.637879888890704239e-01 7.479183512369099729e-01
-1.971435546875000000e-02 -8.813476562500000000e-02 -3.061523437500000000e-01 -1.912311363967436574e-03 6.637923839310871932e-01 7.479144430349845551e-01
-1.828002929687500000e-02 -8.813476562500000000e-02 -3.061523437500000000e-01 -1.908177326214551299e-03 6.637961584372267243e-01 7.479111036100962728e-01
-1.683044433593750000e-02 -8.813476562500000000e-02 -3.061523437500000000e-01 -1.910455489410514424e-03 6.638008531634720377e-01 7.479069310410687565e-01
-1.540374755859375000e-02 -8.813476562500000000e-02 -3.061523437500000000e-01 -1.901006813950969999e-03 6.638043256432709649e-01 7.479038731216571811e-01
-1.396179199218750000e-02 -8.813476562500000000e-02 -3.061523437500000000e-01 -1.902508340203563257e-03 6.638088636063478321e-01 7.478998415962291313e-01
-1.252746582031250000e-02 -8.813476562500000000e-02 -3.061523437500000000e-01 -1.902314707338435221e-03 6.638138081244583377e-01 7.478954534840139834e-01
-1.109313964843750000e-02 -8.813476562500000000e-02 -3.061523437500000000e-01 -1.904385668477784387e-03 6.638181270045181437e-01 7.478916148583557577e-01
-9.651184082031250000e-03 -8.813476562500000000e-02 -3.061523437500000000e-01 -1.905195887586581425e-03 6.638228351448575149e-01 7.478874338888662487e-01
-8.216857910156250000e-03 -8.813476562500000000e-02 -3.061523437500000000e-01 -1.908202339519761382e-03 6.638277915170834875e-01 7.478830269322755964e-01
-6.778717041015625000e-03 -8.813476562500000000e-02 -3.061523437500000000e-01 -1.905414321108051196e-03 6.638318274954333464e-01 7.478794516500223422e-01
-5.340576171875000000e-03 -8.813476562500000000e-02 -3.061523437500000000e-01 -1.903708727554190121e-03 6.638358117307789907e-01 7.478759194925441722e-01
-3.902435302734375000e-03 -8.813476562500000000e-02 -3.061523437500000000e-01 4.696055235207499519e-06 6.630609035377856841e-01 7.485654535026327050e-01
-2.464294433593750000e-03 -8.813476562500000000e-02 -3.061523437500000000e-01 3.504228658014366772e-06 6.630608880524034854e-01 7.485654672257321396e-01
-1.027107238769531250e-03 -8.813476562500000000e-02 -3.061523437500000000e-01 2.101146935742974305e-06 6.630608778631729150e-01 7.485654762563550557e-01
4.100799560546875000e-04 -8.813476562500000000e-02 -3.061523437500000000e-01 -4.080159401369595362e-08 6.630608744222812323e-01 7.485654793071598867e-01
1.847267150878906250e-03 -8.813476562500000000e-02 -3.061523437500000000e-01 -1.161861407221510045e-06 6.630608778138180615e-01 7.485654763021195590e-01
3.284454345703125000e-03 -8.813476562500000000e-02 -3.061523437500000000e-01 -8.199300202550586971e-07 6.630608786651417397e-01 7.485654755484906220e-01
4.722595214843750000e-03 -8.813476562500000000e-02 -3.061523437500000000e-01 1.908471125377810256e-03 6.638380061844940672e-01 7.478739594898053955e-01
6.160736083984375000e-03 -8.813476562500000000e-02 -3.061523437500000000e-01 1.909088043829096359e-03 6.638334484318394457e-01 7.478780035045377028e-01
7.598876953125000000e-03 -8.813476562500000000e-02 -3.061523437500000000e-01 1.906296342589836089e-03 6.638290504814646775e-01 7.478819143227968258e-01
9.033203125000000000e-03 -8.813476562500000000e-02 -3.061523437500000000e-01 1.905831116327052566e-03 6.638247051753966010e-01 7.478857724322303113e-01
1.047515869140625000e-02 -8.813476562500000000e-02 -3.061523437500000000e-01 1.905571857238555532e-03 6.638204249017470859e-01 7.478895722492463483e-01
1.190948486328125000e-02 -8.813476562500000000e-02 -3.061523437500000000e-01 1.908264644909251663e-03 6.638162208397542230e-01 7.478932968519450553e-01
1.335144042968750000e-02 -8.813476562500000000e-02 -3.061523437500000000e-01 1.903185480210938885e-03 6.638114598673848787e-01 7.478975355179072748e-01
1.478576660156250000e-02 -8.813476562500000000e-02 -3.061523437500000000e-01 1.899412817590429231e-03 6.638070092752617057e-01 7.479014952973292996e-01
1.622009277343750000e-02 -8.813476562500000000e-02 -3.061523437500000000e-01 1.901741131640327523e-03 6.638025986881094243e-01 7.479054040154952121e-01
1.765441894531250000e-02 -8.813476562500000000e-02 -3.061523437500000000e-01 1.889673738913730467e-03 6.637969721735152984e-01 7.479104283712280088e-01
1.908874511718750000e-02 -8.813476562500000000e-02 -3.061523437500000000e-01 1.880855501210450167e-03 6.637927567222881020e-01 7.479141919402310101e-01
2.053833007812500000e-02 -8.813476562500000000e-02 -3.061523437500000000e-01 1.876386347541363813e-03 6.637883679614156041e-01 7.479180982790795129e-01
2.197265625000000000e-02 -8.813476562500000000e-02 -3.061523437500000000e-01 1.881659807679864332e-03 6.637843693921051669e-01 7.479216338006900999e-01
2.340698242187500000e-02 -8.813476562500000000e-02 -3.061523437500000000e-01 1.888673827274650694e-03 6.637806074494800868e-01 7.479249548485286114e-01
2.484130859375000000e-02 -8.813476562500000000e-02 -3.061523437500000000e-01 1.893810642613164615e-03 6.637767638952506433e-01 7.479283529817535303e-01
2.629089355468750000e-02 -8.813476562500000000e-02 -3.061523437500000000e-01 1.885798011746270351e-03 6.637714423493678018e-01 7.479330959967601666e-01
2.772521972656250000e-02 -8.813476562500000000e-02 -3.061523437500000000e-01 1.881554939967516708e-03 6.637666831628414865e-01 7.479373303118435068e-01
2.915954589843750000e-02 -8.813476562500000000e-02 -3.061523437500000000e-01 1.886782095144589298e-03 6.637630073248387275e-01 7.479405792978554013e-01
3.059387207031250000e-02 -8.813476562500000000e-02 -3.061523437500000000e-01 1.897898735076295699e-03 6.637586932898169589e-01 7.479443796583979953e-01
3.204345703125000000e-02 -8.813476562500000000e-02 -3.061523437500000000e-01 1.905736122495543328e-03 6.637542744706801390e-01 7.479482811610256299e-01
3.347778320312500000e-02 -8.813476562500000000e-02 -3.061523437500000000e-01 -1.649866366387092373e-02 6.292395127064548399e-01 7.770363117295419064e-01
3.491210937500000000e-02 -8.813476562500000000e-02 -3.061523437500000000e-01 -3.629624270452569412e-02 5.924341297089330549e-01 8.048008354379072582e-01
3.634643554687500000e-02 -8.813476562500000000e-02 -3.061523437500000000e-01 -9.827823618561547236e-02 5.535185694432567249e-01 8.270178846758605706e-01
3.778076171875000000e-02 -8.813476562500000000e-02 -3.061523437500000000e-01 -1.542348139148967956e-01 5.155015726142753163e-01 8.428936770487996943e-01
3.921508789062500000e-02 -8.813476562500000000e-02 -3.061523437500000000e-01 -2.514303623546525479e-01 4.507103721345718794e-01 8.565295869592152167e-01
4.052734375000000000e-02 -8.782958984375000000e-02 -3.051757812500000000e-01 -3.559674984922430174e-01 3.923514970490339371e-01 8.481435272290632765e-01
4.196166992187500000e-02 -8.782958984375000000e-02 -3.051757812500000000e-01 -4.145136045848168416e-01 3.079655949726881059e-01 8.563501993502542486e-01
