1.945495605468750000e-02 1.179504394531250000e-02 -2.147216796875000000e-01 2.622427097757786263e-01 3.155441971037384885e-01 9.119542865975320822e-01
2.055358886718750000e-02 1.184844970703125000e-02 -2.158203125000000000e-01 2.914614764662967761e-01 2.808911117655427114e-01 9.144125934539636402e-01
2.156066894531250000e-02 1.184844970703125000e-02 -2.158203125000000000e-01 3.379378513217417557e-01 2.313566415468901183e-01 9.122894897214306464e-01
2.258300781250000000e-02 1.184844970703125000e-02 -2.158203125000000000e-01 3.264028883473595877e-01 1.651206716315515577e-01 9.306966843598650785e-01
2.371215820312500000e-02 1.190185546875000000e-02 -2.167968750000000000e-01 3.632666430964262005e-01 8.933538912921519526e-02 9.273923302802246083e-01
2.471923828125000000e-02 1.190185546875000000e-02 -2.167968750000000000e-01 3.512971790551174811e-01 4.105581751275902413e-02 9.353634116407781862e-01
2.586364746093750000e-02 1.195526123046875000e-02 -2.177734375000000000e-01 2.676836303185715638e-01 -2.591837850163499629e-02 9.631581966194943112e-01
2.688598632812500000e-02 1.195526123046875000e-02 -2.177734375000000000e-01 2.298843385523692273e-01 -1.147912222817353972e-01 9.664244234162363556e-01
2.790832519531250000e-02 1.195526123046875000e-02 -2.177734375000000000e-01 8.262467853708060916e-02 -1.508168505061967812e-01 9.851027561122929210e-01
2.893066406250000000e-02 1.195526123046875000e-02 -2.177734375000000000e-01 7.364321609074532538e-02 -1.922862470035789084e-01 9.785717530856337110e-01
2.995300292968750000e-02 1.195526123046875000e-02 -2.177734375000000000e-01 2.672073287422783647e-02 -2.265767051411851363e-01 9.736267247369644329e-01
3.097534179687500000e-02 1.195526123046875000e-02 -2.177734375000000000e-01 -4.143372167543644263e-02 -2.382610645732337884e-01 9.703169130838397161e-01
3.198242187500000000e-02 1.195526123046875000e-02 -2.177734375000000000e-01 -5.731127302987091415e-02 -2.039850853892888061e-01 9.772949927848909590e-01
3.302001953125000000e-02 1.195526123046875000e-02 -2.177734375000000000e-01 -8.674019813806052581e-02 -1.570591713004496071e-01 9.837726133296179620e-01
3.402709960937500000e-02 1.195526123046875000e-02 -2.177734375000000000e-01 -1.354995091484969272e-01 -1.241431925037503325e-01 9.829691504698878646e-01
3.506469726562500000e-02 1.195526123046875000e-02 -2.177734375000000000e-01 -1.968520961341388154e-01 -1.125168773601294527e-03 9.804325505830713272e-01
3.607177734375000000e-02 1.195526123046875000e-02 -2.177734375000000000e-01 -2.408291633181038338e-01 3.190993961874345752e-02 9.700428185647426149e-01
3.692626953125000000e-02 1.190185546875000000e-02 -2.167968750000000000e-01 -3.450252059919327041e-01 1.082057654817892706e-01 9.323353042477391384e-01
3.796386718750000000e-02 1.190185546875000000e-02 -2.167968750000000000e-01 -3.534905487137381397e-01 1.366777883563422558e-01 9.253991647608501570e-01
3.897094726562500000e-02 1.190185546875000000e-02 -2.167968750000000000e-01 -3.006203515995438669e-01 1.617156681592911427e-01 9.399337460033876379e-01
3.979492187500000000e-02 1.184844970703125000e-02 -2.158203125000000000e-01 -3.298982269297713321e-01 2.369663251238408597e-01 9.137910705549137091e-01
4.083251953125000000e-02 1.184844970703125000e-02 -2.158203125000000000e-01 -3.260275459247197749e-01 3.037124366567596212e-01 8.952456618818761536e-01
4.183959960937500000e-02 1.184844970703125000e-02 -2.158203125000000000e-01 -3.136541892888486949e-01 3.169213984510279580e-01 8.950876363493129872e-01
4.263305664062500000e-02 1.179504394531250000e-02 -2.147216796875000000e-01 -2.870261611050071160e-01 3.189114001420133016e-01 9.032781972907257817e-01
4.367065429687500000e-02 1.179504394531250000e-02 -2.147216796875000000e-01 -2.812606031437611676e-01 3.241778117961280903e-01 9.032171496701564273e-01
4.467773437500000000e-02 1.179504394531250000e-02 -2.147216796875000000e-01 -2.187769063980001261e-01 3.322553302422737165e-01 9.174655637965483113e-01
4.568481445312500000e-02 1.179504394531250000e-02 -2.147216796875000000e-01 -1.529214045335086369e-01 3.423129074764496571e-01 9.270582060531681323e-01
4.647827148437500000e-02 1.174163818359375000e-02 -2.137451171875000000e-01 -1.189508856554318678e-01 3.435960296161783001e-01 9.315537854755284730e-01
4.745483398437500000e-02 1.174163818359375000e-02 -2.137451171875000000e-01 -9.293612978486884280e-02 3.799338955642080906e-01 9.203331520607173077e-01
4.846191406250000000e-02 1.174163818359375000e-02 -2.137451171875000000e-01 -1.015659355785675788e-01 3.946119459133624607e-01 9.132172648786923697e-01
4.946899414062500000e-02 1.174163818359375000e-02 -2.137451171875000000e-01 -1.108061635872654438e-01 3.908500623844453070e-01 9.137604843968397672e-01
5.047607421875000000e-02 1.174163818359375000e-02 -2.137451171875000000e-01 -1.118445868754775613e-01 3.749107919065302053e-01 9.202894579960547716e-01
5.148315429687500000e-02 1.174163818359375000e-02 -2.137451171875000000e-01 1.603295862263338090e-01 -3.805941312091413176e-01 -9.107373557012207188e-01
5.224609375000000000e-02 1.168060302734375000e-02 -2.127685546875000000e-01 1.964237160040294694e-01 -3.508235544410034379e-01 -9.156093913020710851e-01
6.152343750000000000e-02 1.350402832031250000e-02 -2.458496093750000000e-01 1.893355461636536397e-01 -3.499998395909772464e-01 -9.174160251735310467e-01
6.384277343750000000e-02 1.350402832031250000e-02 -2.458496093750000000e-01 1.569657826860542948e-01 -3.791400563804671053e-01 -9.119290327177713706e-01
6.469726562500000000e-02 1.345062255859375000e-02 -2.448730468750000000e-01 1.569657826860542948e-01 -3.791400563804671053e-01 -9.119290327177713706e-01
6.585693359375000000e-02 1.345062255859375000e-02 -2.448730468750000000e-01 -1.347486732078106431e-01 4.330874973529583727e-01 8.912227637943758163e-01
6.701660156250000000e-02 1.345062255859375000e-02 -2.448730468750000000e-01 -1.132276047835543559e-01 4.413444833986205351e-01 8.901654657919413349e-01
-1.139526367187500000e-01 1.209259033203125000e-02 -2.408447265625000000e-01 4.437549221341791084e-04 -6.475429593764421288e-01 -7.620288175939075037e-01
-1.127929687500000000e-01 1.209259033203125000e-02 -2.408447265625000000e-01 -1.111802536333067644e-03 6.499876537401051424e-01 7.599439544338474350e-01
-1.116943359375000000e-01 1.209259033203125000e-02 -2.408447265625000000e-01 -7.221394183567182517e-05 6.513781900931236990e-01 7.587532196018367259e-01
-1.105346679687500000e-01 1.209259033203125000e-02 -2.408447265625000000e-01 -1.459003123711569855e-04 6.510993142939046630e-01 7.589925306872961075e-01
-1.093750000000000000e-01 1.209259033203125000e-02 -2.408447265625000000e-01 -1.461798644446903332e-04 6.510997759481835789e-01 7.589921346046166750e-01
-1.082763671875000000e-01 1.209259033203125000e-02 -2.408447265625000000e-01 -1.416508465193298946e-04 6.510999698037284178e-01 7.589919691647742939e-01
-1.071166992187500000e-01 1.209259033203125000e-02 -2.408447265625000000e-01 -1.380969894880725198e-04 6.511001682864417939e-01 7.589917995516081151e-01
-1.060180664062500000e-01 1.209259033203125000e-02 -2.408447265625000000e-01 -1.374061837524131525e-04 6.511005819983143317e-01 7.589914447745751414e-01
-1.048583984375000000e-01 1.209259033203125000e-02 -2.408447265625000000e-01 -1.355552196230864668e-04 6.511007216730638758e-01 7.589913252874488370e-01
-1.037597656250000000e-01 1.209259033203125000e-02 -2.408447265625000000e-01 -1.333434071525678867e-04 6.511008520519523390e-01 7.589912138337027159e-01
-1.026000976562500000e-01 1.209259033203125000e-02 -2.408447265625000000e-01 -1.190556357856730824e-04 6.511008075069866230e-01 7.589912544222795487e-01
-1.015014648437500000e-01 1.209259033203125000e-02 -2.408447265625000000e-01 -9.647780118407742493e-04 6.513716270183944612e-01 7.587582439214728414e-01
-1.003417968750000000e-01 1.209259033203125000e-02 -2.408447265625000000e-01 -1.179531416873873820e-04 6.511012403820612970e-01 7.589908832522282989e-01
-9.924316406250000000e-02 1.209259033203125000e-02 -2.408447265625000000e-01 -9.701994286775974738e-04 6.513755860781762497e-01 7.587548382543475300e-01
-9.808349609375000000e-02 1.209259033203125000e-02 -2.408447265625000000e-01 -1.352054365735705930e-04 6.511025578357783061e-01 7.589897501937670210e-01
-9.698486328125000000e-02 1.209259033203125000e-02 -2.408447265625000000e-01 -1.319261666338875799e-04 6.511026838060873789e-01 7.589896427066686879e-01
-9.582519531250000000e-02 1.209259033203125000e-02 -2.408447265625000000e-01 -1.502893647575488558e-04 6.511038533280122387e-01 7.589886360114497244e-01
-9.466552734375000000e-02 1.209259033203125000e-02 -2.408447265625000000e-01 -1.505846254094856404e-04 6.511043377857154146e-01 7.589882203571380881e-01
-9.356689453125000000e-02 1.209259033203125000e-02 -2.408447265625000000e-01 -1.460412991135073390e-04 6.511044049989217486e-01 7.589881635855325603e-01
-9.240722656250000000e-02 1.209259033203125000e-02 -2.408447265625000000e-01 -1.425033836883888552e-04 6.511045073739292199e-01 7.589880764347609610e-01
-9.130859375000000000e-02 1.209259033203125000e-02 -2.408447265625000000e-01 -8.386950294830912943e-04 6.515503710489107814e-01 7.586049107253883816e-01
-9.014892578125000000e-02 1.209259033203125000e-02 -2.408447265625000000e-01 -1.399648207640059308e-04 6.511050052796373278e-01 7.589876497741266936e-01
-8.905029296875000000e-02 1.209259033203125000e-02 -2.408447265625000000e-01 -8.386883551947317854e-04 6.515529042943195570e-01 7.586027349723174495e-01
-8.789062500000000000e-02 1.209259033203125000e-02 -2.408447265625000000e-01 -8.207164875823583661e-04 6.515559526322637351e-01 7.586001364446951500e-01
-8.679199218750000000e-02 1.209259033203125000e-02 -2.408447265625000000e-01 -8.290461661111523436e-04 6.515572633197028729e-01 7.585990016456611862e-01
-8.563232421875000000e-02 1.209259033203125000e-02 -2.408447265625000000e-01 -8.201044408468180285e-04 6.515594592442874866e-01 7.585971252898324746e-01
-8.453369140625000000e-02 1.209259033203125000e-02 -2.408447265625000000e-01 -8.346003420039539234e-04 6.515606704583317699e-01 7.585960691660340594e-01
-8.337402343750000000e-02 1.209259033203125000e-02 -2.408447265625000000e-01 -8.384442225944278458e-04 6.515626157827214548e-01 7.585943940774038108e-01
-8.227539062500000000e-02 1.209259033203125000e-02 -2.408447265625000000e-01 -8.368934645938759694e-04 6.515652096040154273e-01 7.585921679288578634e-01
-8.111572265625000000e-02 1.209259033203125000e-02 -2.408447265625000000e-01 -8.448068298469299173e-04 6.515670463635740983e-01 7.585905815355660220e-01
-7.995605468750000000e-02 1.209259033203125000e-02 -2.408447265625000000e-01 -8.540473366364358804e-04 6.515689844153152999e-01 7.585889065568658385e-01
-7.885742187500000000e-02 1.209259033203125000e-02 -2.408447265625000000e-01 -8.452966629911992050e-04 6.515716745018629297e-01 7.585866057744428126e-01
-7.769775390625000000e-02 1.209259033203125000e-02 -2.408447265625000000e-01 -8.498594795799657015e-04 6.515726429957384713e-01 7.585857688082560113e-01
-7.659912109375000000e-02 1.209259033203125000e-02 -2.408447265625000000e-01 -8.429722313998606366e-04 6.515752752885042298e-01 7.585835155278072284e-01
-7.543945312500000000e-02 1.209259033203125000e-02 -2.408447265625000000e-01 -8.402671171448931886e-04 6.515772987128163329e-01 7.585817805308016082e-01
-7.434082031250000000e-02 1.209259033203125000e-02 -2.408447265625000000e-01 -8.429715207098710311e-04 6.515778211750564708e-01 7.585813287655986947e-01
-7.318115234375000000e-02 1.209259033203125000e-02 -2.408447265625000000e-01 -8.250109341518472835e-04 6.515803484869771012e-01 7.585791776884915905e-01
-7.208251953125000000e-02 1.209259033203125000e-02 -2.408447265625000000e-01 -8.333309898492602483e-04 6.515819145802070889e-01 7.585778233981357310e-01
-7.092285156250000000e-02 1.209259033203125000e-02 -2.408447265625000000e-01 -8.243752206989591290e-04 6.515838549437651395e-01 7.585761665001858889e-01
-6.982421875000000000e-02 1.209259033203125000e-02 -2.408447265625000000e-01 -8.388930428808521415e-04 6.515855049421620526e-01 7.585747333043267870e-01
-6.866455078125000000e-02 1.209259033203125000e-02 -2.408447265625000000e-01 -1.769229686909553419e-04 6.515619072654725841e-01 7.585954453454376578e-01
-6.756591796875000000e-02 1.209259033203125000e-02 -2.408447265625000000e-01 -8.411869974553002737e-04 6.515901356407037825e-01 7.585707531536952652e-01
-6.640625000000000000e-02 1.209259033203125000e-02 -2.408447265625000000e-01 -1.813590173252368630e-04 6.515624671452339145e-01 7.585949634136274211e-01
-6.524658203125000000e-02 1.209259033203125000e-02 -2.408447265625000000e-01 -1.972251726768631339e-04 6.515614726686477232e-01 7.585958136162460619e-01
-6.414794921875000000e-02 1.209259033203125000e-02 -2.408447265625000000e-01 -1.911811034649196404e-04 6.515625627352853444e-01 7.585948788988842173e-01
-6.298828125000000000e-02 1.209259033203125000e-02 -2.408447265625000000e-01 -1.981007623464771145e-04 6.515623313292957519e-01 7.585950758796294879e-01
-6.188964843750000000e-02 1.209259033203125000e-02 -2.408447265625000000e-01 -1.913954030896192389e-04 6.515634566575703168e-01 7.585941110476920324e-01
-6.076049804687500000e-02 1.209259033203125000e-02 -2.408447265625000000e-01 -1.858725665373572140e-04 6.515643289906796198e-01 7.585933631652168607e-01
-5.963134765625000000e-02 1.209259033203125000e-02 -2.408447265625000000e-01 -1.849269295613864669e-04 6.515646806626448351e-01 7.585930613412019685e-01
-5.850219726562500000e-02 1.209259033203125000e-02 -2.408447265625000000e-01 -1.712307679163105085e-04 6.515661739396675367e-01 7.585917819602628898e-01
-5.737304687500000000e-02 1.209259033203125000e-02 -2.408447265625000000e-01 -1.640841156499863558e-04 6.515669915488443431e-01 7.585910812818663640e-01
-5.624389648437500000e-02 1.209259033203125000e-02 -2.408447265625000000e-01 -1.660833117669493358e-04 6.515672039355536738e-01 7.585908984241362951e-01
-5.511474609375000000e-02 1.209259033203125000e-02 -2.408447265625000000e-01 -1.749807469499860572e-04 6.515669699555847183e-01 7.585910973934748558e-01
-5.398559570312500000e-02 1.209259033203125000e-02 -2.408447265625000000e-01 -1.734058375405731747e-04 6.515674426330179125e-01 7.585906917640662384e-01
-5.285644531250000000e-02 1.209259033203125000e-02 -2.408447265625000000e-01 -1.783566630508498052e-04 6.515677159412975872e-01 7.585904558666297648e-01
-5.169677734375000000e-02 1.209259033203125000e-02 -2.408447265625000000e-01 -1.837586798573852438e-04 6.515677185952409856e-01 7.585904522977734432e-01
-5.056762695312500000e-02 1.209259033203125000e-02 -2.408447265625000000e-01 -1.917017760148042953e-04 6.515677136749223886e-01 7.585904545582311531e-01
-4.943847656250000000e-02 1.209259033203125000e-02 -2.408447265625000000e-01 -1.926607585619006732e-04 6.515681875992966887e-01 7.585900472524007565e-01
-4.830932617187500000e-02 1.209259033203125000e-02 -2.408447265625000000e-01 -1.949970694047004419e-04 6.515685872569217940e-01 7.585897033813220336e-01
-4.718017578125000000e-02 1.209259033203125000e-02 -2.408447265625000000e-01 -1.890626824910192252e-04 6.515694068540878181e-01 7.585890009136134760e-01
-4.605102539062500000e-02 1.209259033203125000e-02 -2.408447265625000000e-01 -1.884209782707664115e-04 6.515697224628187456e-01 7.585887299896171276e-01
-4.492187500000000000e-02 1.209259033203125000e-02 -2.408447265625000000e-01 -1.807022321255700461e-04 6.515704156704216210e-01 7.585881364546754879e-01
-4.379272460937500000e-02 1.209259033203125000e-02 -2.408447265625000000e-01 -1.756364864416409659e-04 6.515710742637395025e-01 7.585875719616166357e-01
-4.266357421875000000e-02 1.209259033203125000e-02 -2.408447265625000000e-01 -1.684985001688126698e-04 6.515716872443542140e-01 7.585870470748898864e-01
-4.153442382812500000e-02 1.209259033203125000e-02 -2.408447265625000000e-01 -3.332063950670845209e-02 6.316308313585520251e-01 7.745529212779254102e-01
-4.040527343750000000e-02 1.209259033203125000e-02 -2.408447265625000000e-01 -7.275733969481318342e-02 6.068827952148769800e-01 7.914541315785211806e-01
-3.927612304687500000e-02 1.209259033203125000e-02 -2.408447265625000000e-01 -1.031842004129399776e-01 5.595481174757025444e-01 8.223496367206222235e-01
-3.814697265625000000e-02 1.209259033203125000e-02 -2.408447265625000000e-01 -1.298746117608217121e-01 5.073352404377428071e-01 8.519058275595686736e-01
-3.683471679687500000e-02 1.204681396484375000e-02 -2.398681640625000000e-01 -1.413192218505849862e-01 4.703627276807005875e-01 8.710842565127189241e-01
-3.573608398437500000e-02 1.204681396484375000e-02 -2.398681640625000000e-01 -1.313459538868476939e-01 4.084912805457077689e-01 9.032624835094623661e-01
-3.460693359375000000e-02 1.204681396484375000e-02 -2.398681640625000000e-01 -1.131412899515129439e-01 3.882915306076876183e-01 9.145647794259557095e-01
-3.347778320312500000e-02 1.204681396484375000e-02 -2.398681640625000000e-01 -8.433388074530244471e-02 3.927422478069549361e-01 9.157736201409043542e-01
-3.234863281250000000e-02 1.204681396484375000e-02 -2.398681640625000000e-01 -1.254084635652834290e-01 4.108508238448798089e-01 9.030361663921210313e-01
-3.121948242187500000e-02 1.204681396484375000e-02 -2.398681640625000000e-01 -1.195651870732356431e-01 4.235752963104436053e-01 8.979354845397646834e-01
-3.009033203125000000e-02 1.204681396484375000e-02 -2.398681640625000000e-01 -1.245935143096390946e-01 4.139831357669029877e-01 9.017174831911465294e-01
-2.883911132812500000e-02 1.199340820312500000e-02 -2.388916015625000000e-01 1.349354024654678685e-01 -4.416946980507184817e-01 -8.869601066989241112e-01
-2.772521972656250000e-02 1.199340820312500000e-02 -2.388916015625000000e-01 1.502048172908864998e-01 -4.365856614663616853e-01 -8.870352152336404838e-01
-2.186584472656250000e-02 1.129150390625000000e-02 -2.248535156250000000e-01 6.625317759646501825e-01 4.193304098523044643e-01 -6.206558250836168300e-01
-2.072143554687500000e-02 1.123809814453125000e-02 -2.237548828125000000e-01 6.792888349354986310e-01 3.751687355734872886e-01 -6.307258505723096764e-01
-1.957702636718750000e-02 1.118469238281250000e-02 -2.227783203125000000e-01 7.247660907505288908e-01 3.090128788444792551e-01 -6.158125968234520187e-01
-1.828002929687500000e-02 1.103973388671875000e-02 -2.198486328125000000e-01 -5.809876282516613921e-01 -2.607165879503265879e-02 8.134947107548916589e-01
-1.716613769531250000e-02 1.098632812500000000e-02 -2.187500000000000000e-01 -3.844823194437136382e-01 1.380579495945358226e-01 9.127504306155843627e-01
-1.614379882812500000e-02 1.098632812500000000e-02 -2.187500000000000000e-01 -3.645027830129767277e-01 1.294895874092025501e-01 9.221551756230560448e-01
-1.505279541015625000e-02 1.093292236328125000e-02 -2.177734375000000000e-01 -2.270996502446614718e-01 1.115719994128194781e-01 9.674592693265066101e-01
-1.403045654296875000e-02 1.093292236328125000e-02 -2.177734375000000000e-01 -2.475799015328346009e-01 1.240221250008922971e-01 9.608968232163402901e-01
-1.300048828125000000e-02 1.093292236328125000e-02 -2.177734375000000000e-01 -2.169976021181157233e-01 1.612292082580045194e-01 9.627653831954517960e-01
-1.197814941406250000e-02 1.093292236328125000e-02 -2.177734375000000000e-01 -1.515285494365577468e-01 1.532375149173341722e-01 9.765026178805730206e-01
-1.091003417968750000e-02 1.088714599609375000e-02 -2.167968750000000000e-01 -1.491350011225352767e-01 2.043364113194234000e-01 9.674737115029435897e-01
-9.887695312500000000e-03 1.088714599609375000e-02 -2.167968750000000000e-01 -1.367442437044606995e-01 2.541312553722988032e-01 9.574540808083668031e-01
-8.872985839843750000e-03 1.088714599609375000e-02 -2.167968750000000000e-01 -1.359942096278810020e-01 3.094978240752436771e-01 9.411252158136969026e-01
-7.850646972656250000e-03 1.088714599609375000e-02 -2.167968750000000000e-01 -1.496466657426129554e-01 3.556678957652772977e-01 9.225541845084322956e-01
-6.835937500000000000e-03 1.088714599609375000e-02 -2.167968750000000000e-01 -1.591031260740578268e-01 3.764021343569463052e-01 9.126925158699384921e-01
-5.817413330078125000e-03 1.088714599609375000e-02 -2.167968750000000000e-01 -2.189983383624860003e-01 4.280303796046956433e-01 8.768293573609007296e-01
-4.776000976562500000e-03 1.083374023437500000e-02 -2.158203125000000000e-01 -2.451116916462423856e-01 4.613234021507849336e-01 8.527021620978467720e-01
-3.765106201171875000e-03 1.083374023437500000e-02 -2.158203125000000000e-01 -2.512217707705554082e-01 5.041569731092043760e-01 8.262647084054065560e-01
-2.750396728515625000e-03 1.083374023437500000e-02 -2.158203125000000000e-01 -2.511688828231064541e-01 5.478859528118389388e-01 7.979568754092267735e-01
-1.729011535644531250e-03 1.078796386718750000e-02 -2.147216796875000000e-01 -2.724154328509703071e-01 5.467973554216871701e-01 7.917085853067830081e-01
-7.209777832031250000e-04 1.078796386718750000e-02 -2.147216796875000000e-01 -2.505592716049581670e-01 5.632184723551804106e-01 7.874039648177356687e-01
2.877712249755859375e-04 1.078796386718750000e-02 -2.147216796875000000e-01 -2.271410465762973008e-01 5.788899863858482098e-01 7.831304671779899529e-01
1.290321350097656250e-03 1.073455810546875000e-02 -2.137451171875000000e-01 -1.891548368527680990e-01 5.897832500283127777e-01 7.850962779692968185e-01
2.294540405273437500e-03 1.073455810546875000e-02 -2.137451171875000000e-01 -1.107251509926021754e-01 6.342152299203476229e-01 7.651868942126139883e-01
3.297805786132812500e-03 1.073455810546875000e-02 -2.137451171875000000e-01 -1.146812584454314776e-01 6.310579076471408699e-01 7.672119173718463525e-01
4.302978515625000000e-03 1.073455810546875000e-02 -2.137451171875000000e-01 -9.172134066047633871e-02 6.267179433938803168e-01 7.738293190979453895e-01
5.306243896484375000e-03 1.073455810546875000e-02 -2.137451171875000000e-01 -6.015542449751400123e-02 6.207200077305894403e-01 7.817211759358070333e-01
6.309509277343750000e-03 1.073455810546875000e-02 -2.137451171875000000e-01 -5.016010505123295882e-02 5.884432939875400281e-01 8.069810738935224714e-01
7.312774658203125000e-03 1.073455810546875000e-02 -2.137451171875000000e-01 -4.265815441487683796e-02 5.652504839912915191e-01 8.238156178475418701e-01
8.316040039062500000e-03 1.073455810546875000e-02 -2.137451171875000000e-01 -3.004239204984742589e-02 5.325564638096328407e-01 8.458611396290187656e-01
9.323120117187500000e-03 1.073455810546875000e-02 -2.137451171875000000e-01 5.950213765596678271e-04 5.214265742809225390e-01 8.532959472441100646e-01
1.032257080078125000e-02 1.073455810546875000e-02 -2.137451171875000000e-01 6.292318890374355277e-04 5.214243848029078698e-01 8.532972606308651953e-01
1.132965087890625000e-02 1.073455810546875000e-02 -2.137451171875000000e-01 6.187699351404812864e-03 5.085376750401788826e-01 8.610175058856039954e-01
1.233673095703125000e-02 1.073455810546875000e-02 -2.137451171875000000e-01 2.463689976678710980e-02 4.999378305486656404e-01 8.657107997225025331e-01
1.333618164062500000e-02 1.073455810546875000e-02 -2.137451171875000000e-01 8.145338718184456928e-02 4.804584957409274715e-01 8.732267629813974530e-01
1.434326171875000000e-02 1.073455810546875000e-02 -2.137451171875000000e-01 1.066857857060493214e-01 4.530776600774822915e-01 8.850642784945036423e-01
1.534271240234375000e-02 1.073455810546875000e-02 -2.137451171875000000e-01 1.483334568673142784e-01 4.009989454418985688e-01 9.039895084171485351e-01
1.634216308593750000e-02 1.073455810546875000e-02 -2.137451171875000000e-01 1.869832520164553258e-01 3.846895075083814342e-01 9.039088705606940222e-01
1.734924316406250000e-02 1.073455810546875000e-02 -2.137451171875000000e-01 2.174464405476659867e-01 3.754195604751838222e-01 9.009867918597752601e-01
1.844787597656250000e-02 1.078796386718750000e-02 -2.147216796875000000e-01 2.481172326027838715e-01 3.427596223433881928e-01 9.060649425822377978e-01
1.945495605468750000e-02 1.078796386718750000e-02 -2.147216796875000000e-01 3.041014534922637513e-01 2.995014164894979070e-01 9.043346767124862406e-01
2.046203613281250000e-02 1.078796386718750000e-02 -2.147216796875000000e-01 3.360320907208904084e-01 2.660566627816063900e-01 9.034911655324925350e-01
2.156066894531250000e-02 1.083374023437500000e-02 -2.158203125000000000e-01 3.700674578400171000e-01 2.157618543650745568e-01 9.036021795285642533e-01
2.258300781250000000e-02 1.083374023437500000e-02 -2.158203125000000000e-01 3.742419204380478814e-01 1.820394894327162782e-01 9.092879682883293624e-01
2.371215820312500000e-02 1.088714599609375000e-02 -2.167968750000000000e-01 4.041465359941047719e-01 9.025291040200185411e-02 9.102307342690282299e-01
2.471923828125000000e-02 1.088714599609375000e-02 -2.167968750000000000e-01 3.893386405334037792e-01 3.806310017893391878e-02 9.203078959741514131e-01
2.586364746093750000e-02 1.093292236328125000e-02 -2.177734375000000000e-01 3.333408634209085175e-01 -7.482621891807253456e-02 9.398323817235858524e-01
2.688598632812500000e-02 1.093292236328125000e-02 -2.177734375000000000e-01 2.904144075928263846e-01 -1.239745150972352966e-01 9.488360192725153741e-01
2.790832519531250000e-02 1.093292236328125000e-02 -2.177734375000000000e-01 1.903237427602424980e-01 -2.244463874381106006e-01 9.557199862447758321e-01
2.906799316406250000e-02 1.098632812500000000e-02 -2.187500000000000000e-01 1.114007158931498570e-01 -3.690718137458334769e-01 9.227003179780824960e-01
3.009033203125000000e-02 1.098632812500000000e-02 -2.187500000000000000e-01 -9.045227582320793450e-03 -3.883562482017170470e-01 9.214649251820008491e-01
3.111267089843750000e-02 1.098632812500000000e-02 -2.187500000000000000e-01 -9.250545129366755104e-02 -3.810016674724976404e-01 9.199350362194774755e-01
3.213500976562500000e-02 1.098632812500000000e-02 -2.187500000000000000e-01 -1.328486665843915115e-01 -3.216082484505637384e-01 9.375069953420664959e-01
3.302001953125000000e-02 1.093292236328125000e-02 -2.177734375000000000e-01 -1.510584550081457977e-01 -1.987210636378246020e-01 9.683446091331349148e-01
3.402709960937500000e-02 1.093292236328125000e-02 -2.177734375000000000e-01 -2.160779047088662030e-01 -1.652153474533804844e-01 9.622963306915831572e-01
3.506469726562500000e-02 1.093292236328125000e-02 -2.177734375000000000e-01 -2.993772702988787837e-01 -7.049304639366545111e-02 9.515271832367862004e-01
3.607177734375000000e-02 1.093292236328125000e-02 -2.177734375000000000e-01 -3.018483597974755406e-01 -2.854269318268852842e-02 9.529285819794958146e-01
3.692626953125000000e-02 1.088714599609375000e-02 -2.167968750000000000e-01 -3.727275192009529836e-01 6.753957155725515138e-02 9.254796608808675273e-01
3.796386718750000000e-02 1.088714599609375000e-02 -2.167968750000000000e-01 -3.758850408426872014e-01 7.671687818214051324e-02 9.234852227689830384e-01
3.878784179687500000e-02 1.083374023437500000e-02 -2.158203125000000000e-01 -3.607524913060420335e-01 1.761692032612826586e-01 9.158722901358949953e-01
3.979492187500000000e-02 1.083374023437500000e-02 -2.158203125000000000e-01 -3.850121954421106274e-01 2.161548901755820373e-01 8.972417025607025698e-01
4.083251953125000000e-02 1.083374023437500000e-02 -2.158203125000000000e-01 -3.513975504958901097e-01 2.671396833973769258e-01 8.973049376103073849e-01
4.162597656250000000e-02 1.078796386718750000e-02 -2.147216796875000000e-01 -3.384650221012066029e-01 2.930215462130076332e-01 8.941922624743339210e-01
4.263305664062500000e-02 1.078796386718750000e-02 -2.147216796875000000e-01 -2.992830366493824390e-01 3.239507935129556926e-01 8.974884664196250972e-01
4.367065429687500000e-02 1.078796386718750000e-02 -2.147216796875000000e-01 -2.705134571545156907e-01 3.097730228571195510e-01 9.115169465282993988e-01
4.446411132812500000e-02 1.073455810546875000e-02 -2.137451171875000000e-01 -2.238258656854603956e-01 3.317477771161590483e-01 9.164307907467108549e-01
4.547119140625000000e-02 1.073455810546875000e-02 -2.137451171875000000e-01 -2.012269080596989779e-01 3.543624059600060661e-01 9.132004252709091663e-01
4.647827148437500000e-02 1.073455810546875000e-02 -2.137451171875000000e-01 -1.522695169849807295e-01 3.982850050220662630e-01 9.045347140777590944e-01
4.745483398437500000e-02 1.073455810546875000e-02 -2.137451171875000000e-01 -9.664153924934451578e-02 4.246626653748575286e-01 9.001788897370562870e-01
4.846191406250000000e-02 1.073455810546875000e-02 -2.137451171875000000e-01 -1.119955186837992556e-01 4.086364107109429211e-01 9.057998054956870604e-01
4.946899414062500000e-02 1.073455810546875000e-02 -2.137451171875000000e-01 -1.148905453586776121e-01 3.779851560843996983e-01 9.186552042888764813e-01
5.047607421875000000e-02 1.073455810546875000e-02 -2.137451171875000000e-01 -1.191026976717582814e-01 4.043296054708945264e-01 9.068252960449770805e-01
5.123901367187500000e-02 1.068115234375000000e-02 -2.127685546875000000e-01 -1.635916856293313515e-01 3.869757386942176969e-01 9.074621413893907418e-01
5.224609375000000000e-02 1.068115234375000000e-02 -2.127685546875000000e-01 1.772636957428481430e-01 -3.652543230705428967e-01 -9.138746421965466826e-01
5.325317382812500000e-02 1.068115234375000000e-02 -2.127685546875000000e-01 1.665119045841331191e-01 -3.207951485312656725e-01 -9.323970497114242306e-01
6.359863281250000000e-02 1.229858398437500000e-02 -2.448730468750000000e-01 1.796549486459047551e-01 -3.573808170917461835e-01 -9.165168034476364189e-01
6.469726562500000000e-02 1.229858398437500000e-02 -2.448730468750000000e-01 1.569657826860542948e-01 -3.791400563804671053e-01 -9.119290327177713706e-01
6.585693359375000000e-02 1.229858398437500000e-02 -2.448730468750000000e-01 1.569657826860542948e-01 -3.791400563804671053e-01 -9.119290327177713706e-01
6.677246093750000000e-02 1.224517822265625000e-02 -2.438964843750000000e-01 -1.347486732078106431e-01 4.330874973529583727e-01 8.912227637943758163e-01
-1.145629882812500000e-01 1.091766357421875000e-02 -2.398681640625000000e-01 -8.632107257124481403e-04 -6.522536275705672626e-01 -7.580003035542131062e-01
-1.134643554687500000e-01 1.091766357421875000e-02 -2.398681640625000000e-01 -1.053130846725112979e-03 -6.518325380351208675e-01 -7.583622045395669309e-01
-1.123046875000000000e-01 1.091766357421875000e-02 -2.398681640625000000e-01 -1.936318774027395370e-03 6.487769199031839795e-01 7.609761881100767233e-01
-1.112060546875000000e-01 1.091766357421875000e-02 -2.398681640625000000e-01 1.265629677017560606e-04 6.489723331835417497e-01 7.608119969769964186e-01
-1.100463867187500000e-01 1.091766357421875000e-02 -2.398681640625000000e-01 1.161077972068358556e-04 6.489721717643346377e-01 7.608121363348920863e-01
-1.089477539062500000e-01 1.091766357421875000e-02 -2.398681640625000000e-01 1.160603850595827132e-04 6.489718799949413253e-01 7.608123852210995075e-01
-1.078491210937500000e-01 1.091766357421875000e-02 -2.398681640625000000e-01 1.241403114853840224e-04 6.489713441822240192e-01 7.608128409927769065e-01
-1.066894531250000000e-01 1.091766357421875000e-02 -2.398681640625000000e-01 1.297912651413650042e-04 6.489709713611965247e-01 7.608131580649303283e-01
-1.055908203125000000e-01 1.091766357421875000e-02 -2.398681640625000000e-01 9.474844651879463881e-04 6.487167702911876832e-01 7.610293386040769548e-01
-1.044311523437500000e-01 1.091766357421875000e-02 -2.398681640625000000e-01 1.298227633779590762e-04 6.489703162858178054e-01 7.608137168360830094e-01
-1.033325195312500000e-01 1.091766357421875000e-02 -2.398681640625000000e-01 9.529796043410867883e-04 6.487127903879920110e-01 7.610327242746522947e-01
-1.021728515625000000e-01 1.091766357421875000e-02 -2.398681640625000000e-01 1.305748548039831853e-04 6.489697804978334927e-01 7.608141737315368136e-01
-1.010742187500000000e-01 1.091766357421875000e-02 -2.398681640625000000e-01 1.231836089037605727e-04 6.489696365424489910e-01 7.608142977571861199e-01
-9.991455078125000000e-02 1.091766357421875000e-02 -2.398681640625000000e-01 1.297831687677683836e-04 6.489692227032229921e-01 7.608146496619947463e-01
-9.881591796875000000e-02 1.091766357421875000e-02 -2.398681640625000000e-01 1.316380732720983792e-04 6.489689680089775203e-01 7.608148665955341006e-01
-9.765625000000000000e-02 1.091766357421875000e-02 -2.398681640625000000e-01 1.143540740407894465e-04 6.489692044200682242e-01 7.608146677329041818e-01
-9.655761718750000000e-02 1.091766357421875000e-02 -2.398681640625000000e-01 2.187598154915159330e-04 6.479789003562946847e-01 7.616582546242048890e-01
-9.539794921875000000e-02 1.091766357421875000e-02 -2.398681640625000000e-01 1.106641425624214453e-04 6.489689205746234091e-01 7.608149103965139437e-01
-9.429931640625000000e-02 1.091766357421875000e-02 -2.398681640625000000e-01 2.141643273274564314e-04 6.479775430781002932e-01 7.616594106292586819e-01
-9.320068359375000000e-02 1.091766357421875000e-02 -2.398681640625000000e-01 2.245537587355279138e-04 6.479774278769302454e-01 7.616595056438323352e-01
-9.204101562500000000e-02 1.091766357421875000e-02 -2.398681640625000000e-01 2.348669386606192812e-04 6.479771263124441960e-01 7.616597590876046375e-01
-9.094238281250000000e-02 1.091766357421875000e-02 -2.398681640625000000e-01 2.204425968930291723e-04 6.479760918091403976e-01 7.616606434947350568e-01
-8.978271484375000000e-02 1.091766357421875000e-02 -2.398681640625000000e-01 2.391123579010166950e-04 6.479760142762106545e-01 7.616607038229006310e-01
-8.868408203125000000e-02 1.091766357421875000e-02 -2.398681640625000000e-01 2.268790885073594080e-04 6.479753649179272879e-01 7.616612600003747069e-01
-8.752441406250000000e-02 1.091766357421875000e-02 -2.398681640625000000e-01 2.256179659964009849e-04 6.479749457013758152e-01 7.616616170188914570e-01
-8.642578125000000000e-02 1.091766357421875000e-02 -2.398681640625000000e-01 2.249608106175582541e-04 6.479739826260014768e-01 7.616624365376251093e-01
-8.526611328125000000e-02 1.091766357421875000e-02 -2.398681640625000000e-01 7.762725209672850964e-04 6.489152515899244689e-01 7.608602983826651123e-01
-8.416748046875000000e-02 1.091766357421875000e-02 -2.398681640625000000e-01 -7.641639535672951726e-03 6.685127783706795723e-01 7.436613950584779476e-01
-8.300781250000000000e-02 1.091766357421875000e-02 -2.398681640625000000e-01 -4.646755982676660339e-03 6.824906060080040415e-01 7.308795936196775811e-01
-8.190917968750000000e-02 1.091766357421875000e-02 -2.398681640625000000e-01 9.133857228734052966e-03 6.828129409610325107e-01 7.305361457917538548e-01
-8.074951171875000000e-02 1.091766357421875000e-02 -2.398681640625000000e-01 1.003549314937327540e-02 6.681856666771617270e-01 7.439268806303788173e-01
-7.965087890625000000e-02 1.091766357421875000e-02 -2.398681640625000000e-01 1.290804774849914046e-03 6.489811306449034811e-01 7.608034081744744492e-01
-7.855224609375000000e-02 1.091766357421875000e-02 -2.398681640625000000e-01 2.197257398786574604e-04 6.479706003119158897e-01 7.616653155107003803e-01
-7.739257812500000000e-02 1.091766357421875000e-02 -2.398681640625000000e-01 2.300133889751510745e-04 6.479700015338728525e-01 7.616658218707426098e-01
-7.629394531250000000e-02 1.091766357421875000e-02 -2.398681640625000000e-01 2.156107204492341018e-04 6.479694141539287244e-01 7.616663257838248713e-01
-7.513427734375000000e-02 1.091766357421875000e-02 -2.398681640625000000e-01 2.342649703087439756e-04 6.479687869265421396e-01 7.616668538730492211e-01
-7.403564453125000000e-02 1.091766357421875000e-02 -2.398681640625000000e-01 2.220363156748785438e-04 6.479685129353657258e-01 7.616670906270043284e-01
-7.287597656250000000e-02 1.091766357421875000e-02 -2.398681640625000000e-01 2.207824578220681400e-04 6.479681399931084274e-01 7.616674082622792996e-01
-7.177734375000000000e-02 1.091766357421875000e-02 -2.398681640625000000e-01 2.201278120311253670e-04 6.479672170531435293e-01 7.616681936172409184e-01
-7.061767578125000000e-02 1.091766357421875000e-02 -2.398681640625000000e-01 2.242206699738260017e-04 6.479670719152639258e-01 7.616683158952133326e-01
-6.951904296875000000e-02 1.091766357421875000e-02 -2.398681640625000000e-01 2.319227675391432382e-04 6.479664450607705017e-01 7.616688468666270584e-01
-6.835937500000000000e-02 1.091766357421875000e-02 -2.398681640625000000e-01 7.319969911555578588e-04 6.480378137395101934e-01 7.616078099285227276e-01
-6.726074218750000000e-02 1.091766357421875000e-02 -2.398681640625000000e-01 7.272757218003444209e-04 6.480365214206783575e-01 7.616089140595790896e-01
-6.610107421875000000e-02 1.091766357421875000e-02 -2.398681640625000000e-01 7.272795683854291638e-04 6.480334923419871496e-01 7.616114914229412669e-01
-6.500244140625000000e-02 1.091766357421875000e-02 -2.398681640625000000e-01 7.184483223916032172e-04 6.480312490155190064e-01 7.616134085816730348e-01
-6.390380859375000000e-02 1.091766357421875000e-02 -2.398681640625000000e-01 7.283745946637129685e-04 6.480304143130836136e-01 7.616141093727605282e-01
-6.274414062500000000e-02 1.091766357421875000e-02 -2.398681640625000000e-01 7.230954130380207656e-04 6.480274157123957490e-01 7.616166657959485553e-01
-6.164550781250000000e-02 1.091766357421875000e-02 -2.398681640625000000e-01 7.150495090277985809e-04 6.480251360792664839e-01 7.616186130299389401e-01
-6.051635742187500000e-02 1.091766357421875000e-02 -2.398681640625000000e-01 7.254116661419682168e-04 6.480246852162797611e-01 7.616189868485790937e-01
-5.938720703125000000e-02 1.091766357421875000e-02 -2.398681640625000000e-01 7.264868612309155049e-04 6.480230503565469480e-01 7.616203768436325960e-01
-5.825805664062500000e-02 1.091766357421875000e-02 -2.398681640625000000e-01 7.346391034094843561e-04 6.480221678987049261e-01 7.616211198602954591e-01
-5.712890625000000000e-02 1.091766357421875000e-02 -2.398681640625000000e-01 7.356761027787174978e-04 6.480205038011551677e-01 7.616225347466872853e-01
-5.599975585937500000e-02 1.091766357421875000e-02 -2.398681640625000000e-01 7.400534600284071427e-04 6.480192709580722132e-01 7.616235794589377717e-01
-5.487060546875000000e-02 1.091766357421875000e-02 -2.398681640625000000e-01 7.361840623993253689e-04 6.480172407886904962e-01 7.616253105521365585e-01
-5.374145507812500000e-02 1.091766357421875000e-02 -2.398681640625000000e-01 7.249914818264834677e-04 6.480150332517826683e-01 7.616271995320560428e-01
-5.261230468750000000e-02 1.091766357421875000e-02 -2.398681640625000000e-01 7.230173763316974193e-04 6.480129803500005448e-01 7.616289480736556650e-01
-5.148315429687500000e-02 1.091766357421875000e-02 -2.398681640625000000e-01 7.198825955536466851e-04 6.480108701153841633e-01 7.616307464784699555e-01
-5.038452148437500000e-02 1.091766357421875000e-02 -2.398681640625000000e-01 7.220133254490263171e-04 6.480096942375355162e-01 7.616317449206891910e-01
-4.925537109375000000e-02 1.091766357421875000e-02 -2.398681640625000000e-01 7.220181788910755077e-04 6.480077701784946465e-01 7.616333819351962520e-01
-4.812622070312500000e-02 1.091766357421875000e-02 -2.398681640625000000e-01 7.192684966435926915e-04 6.480057047139696769e-01 7.616351418566381648e-01
-4.699707031250000000e-02 1.091766357421875000e-02 -2.398681640625000000e-01 7.219857714066627973e-04 6.480041492315219420e-01 7.616364627007279342e-01
-4.586791992187500000e-02 1.091766357421875000e-02 -2.398681640625000000e-01 7.251698927128778045e-04 6.480027956264616806e-01 7.616376113276686066e-01
-4.473876953125000000e-02 1.091766357421875000e-02 -2.398681640625000000e-01 7.275726790431242532e-04 6.480013937453464878e-01 7.616388017571616986e-01
-4.360961914062500000e-02 1.091766357421875000e-02 -2.398681640625000000e-01 7.297954836879731256e-04 6.479997677748300378e-01 7.616401830013425078e-01
-4.248046875000000000e-02 1.091766357421875000e-02 -2.398681640625000000e-01 7.308393418646202174e-04 6.479980840366469375e-01 7.616416145134737858e-01
-4.135131835937500000e-02 1.091766357421875000e-02 -2.398681640625000000e-01 7.352081043498479886e-04 6.479967286698876672e-01 7.616427634410815051e-01
-4.022216796875000000e-02 1.091766357421875000e-02 -2.398681640625000000e-01 -3.202165187555539722e-02 6.267044306060204351e-01 7.785988508018389931e-01
-3.909301757812500000e-02 1.091766357421875000e-02 -2.398681640625000000e-01 -5.173689425604793835e-02 6.014101883010186667e-01 7.972634941977915224e-01
-3.796386718750000000e-02 1.091766357421875000e-02 -2.398681640625000000e-01 -7.738838961256257198e-02 5.711536903641385443e-01 8.171869425881692628e-01
-3.683471679687500000e-02 1.091766357421875000e-02 -2.398681640625000000e-01 -8.868701269511562735e-02 5.191642360098809306e-01 8.500606506758756620e-01
-3.573608398437500000e-02 1.091766357421875000e-02 -2.398681640625000000e-01 -8.527178226949630457e-02 4.941661887563968958e-01 8.651754163396927488e-01
-3.445434570312500000e-02 1.087188720703125000e-02 -2.388916015625000000e-01 -8.875480729569509841e-02 4.966804931142706492e-01 8.633835022408460347e-01
-3.332519531250000000e-02 1.087188720703125000e-02 -2.388916015625000000e-01 -9.223265077542541768e-02 4.809200183380146765e-01 8.718996926784079449e-01
-3.219604492187500000e-02 1.087188720703125000e-02 -2.388916015625000000e-01 -1.050942287898705557e-01 4.550419450166236501e-01 8.842465896742550679e-01
-3.109741210937500000e-02 1.087188720703125000e-02 -2.388916015625000000e-01 -9.733535481512128884e-02 4.160439947758757251e-01 9.041201375447543986e-01
-2.996826171875000000e-02 1.087188720703125000e-02 -2.388916015625000000e-01 -1.346694218880377936e-01 4.368918002206703122e-01 8.893760181769484463e-01
-2.883911132812500000e-02 1.087188720703125000e-02 -2.388916015625000000e-01 1.449836898408330965e-01 -4.434756493551860745e-01 -8.844823786312157043e-01
-2.772521972656250000e-02 1.087188720703125000e-02 -2.388916015625000000e-01 2.029321082622484174e-01 -4.608600289040552522e-01 -8.639598330910949198e-01
-2.186584472656250000e-02 1.023101806640625000e-02 -2.248535156250000000e-01 6.797317677089764754e-01 5.203146230219302115e-01 -5.169501107812790597e-01
-2.081298828125000000e-02 1.023101806640625000e-02 -2.248535156250000000e-01 -6.426361870691380540e-01 -5.625565462958280749e-01 5.201431180828499645e-01
-1.957702636718750000e-02 1.013946533203125000e-02 -2.227783203125000000e-01 7.401793861258980645e-01 2.864852489993218732e-01 -6.083261283720149404e-01
-1.828002929687500000e-02 1.000213623046875000e-02 -2.198486328125000000e-01 6.982409647628122773e-01 1.988962366076396371e-01 -6.876771351371333552e-01
-1.716613769531250000e-02 9.956359863281250000e-03 -2.187500000000000000e-01 3.951329967156987921e-01 -2.140955869598629158e-02 -9.183744038805278231e-01
-1.614379882812500000e-02 9.956359863281250000e-03 -2.187500000000000000e-01 -3.571832399313197293e-01 1.997493663397065244e-02 9.338207188848585139e-01
-1.505279541015625000e-02 9.910583496093750000e-03 -2.177734375000000000e-01 -2.595399551219668144e-01 1.012653187797418475e-01 9.604084271328134914e-01
-1.403045654296875000e-02 9.910583496093750000e-03 -2.177734375000000000e-01 -2.520878640993814979e-01 8.749462389521489580e-02 9.637408363057190508e-01
-1.300048828125000000e-02 9.910583496093750000e-03 -2.177734375000000000e-01 -2.198573886836275859e-01 6.961255946168654063e-02 9.730451275282196999e-01
-1.192474365234375000e-02 9.864807128906250000e-03 -2.167968750000000000e-01 -2.157539264927606504e-01 9.490527523133797383e-02 9.718246919770152648e-01
-1.091003417968750000e-02 9.864807128906250000e-03 -2.167968750000000000e-01 -1.903041270128804086e-01 1.796465407935128045e-01 9.651484132623283640e-01
-9.887695312500000000e-03 9.864807128906250000e-03 -2.167968750000000000e-01 -2.005637277392222362e-01 2.177040421026139871e-01 9.551853962281512400e-01
-8.872985839843750000e-03 9.864807128906250000e-03 -2.167968750000000000e-01 -1.668215030064745252e-01 2.428909991471608354e-01 9.556016684099890579e-01
-7.850646972656250000e-03 9.864807128906250000e-03 -2.167968750000000000e-01 -1.755427704218694429e-01 2.845070517884101813e-01 9.424651045186138720e-01
-6.805419921875000000e-03 9.819030761718750000e-03 -2.158203125000000000e-01 -2.681026544570097592e-01 3.098346806227759154e-01 9.122080011469356764e-01
-5.790710449218750000e-03 9.819030761718750000e-03 -2.158203125000000000e-01 -2.750504621903449576e-01 3.580774056698464158e-01 8.922599479958908120e-01
-4.776000976562500000e-03 9.819030761718750000e-03 -2.158203125000000000e-01 -2.936244902694183367e-01 4.464491214176730116e-01 8.452619953005175990e-01
-3.746032714843750000e-03 9.773254394531250000e-03 -2.147216796875000000e-01 -2.982514478638276234e-01 4.643073685975442899e-01 8.339452867623599053e-01
-2.737045288085937500e-03 9.773254394531250000e-03 -2.147216796875000000e-01 -3.001545091270132470e-01 4.891832564883281664e-01 8.189059849715326633e-01
-1.729011535644531250e-03 9.773254394531250000e-03 -2.147216796875000000e-01 -2.761793597234177833e-01 4.936361462153525115e-01 8.246504207313656298e-01
-7.176399230957031250e-04 9.727478027343750000e-03 -2.137451171875000000e-01 -2.709841801194481925e-01 4.977637400437730508e-01 8.238924888737763075e-01
2.863407135009765625e-04 9.727478027343750000e-03 -2.137451171875000000e-01 -2.470902425840329208e-01 5.244590497241301552e-01 8.147939108647205275e-01
1.290321350097656250e-03 9.727478027343750000e-03 -2.137451171875000000e-01 -2.204993215659882544e-01 5.520636297204524201e-01 8.041180248749669746e-01
2.283096313476562500e-03 9.681701660156250000e-03 -2.127685546875000000e-01 -1.895452379864282499e-01 5.622056101078145574e-01 8.049828909486016482e-01
3.282546997070312500e-03 9.681701660156250000e-03 -2.127685546875000000e-01 -1.116018886342996508e-01 6.273179748549186918e-01 7.707250981233070286e-01
4.280090332031250000e-03 9.681701660156250000e-03 -2.127685546875000000e-01 -9.371957559009201633e-02 6.360665660116022746e-01 7.659216440037591722e-01
5.279541015625000000e-03 9.681701660156250000e-03 -2.127685546875000000e-01 -5.517368274601165690e-02 6.413056245040104075e-01 7.652992621920943206e-01
6.278991699218750000e-03 9.681701660156250000e-03 -2.127685546875000000e-01 -2.319547367089461187e-02 6.455131703689848122e-01 7.633968279219954800e-01
7.278442382812500000e-03 9.681701660156250000e-03 -2.127685546875000000e-01 -1.675225085155463561e-02 6.311588990943324262e-01 7.754726340661137751e-01
8.277893066406250000e-03 9.681701660156250000e-03 -2.127685546875000000e-01 1.123614520086527006e-02 5.983362089295771735e-01 8.011663560864288325e-01
9.277343750000000000e-03 9.681701660156250000e-03 -2.127685546875000000e-01 1.760842258167346144e-02 5.789539437642174935e-01 8.151700892783323438e-01
1.027679443359375000e-02 9.681701660156250000e-03 -2.127685546875000000e-01 1.608481393621990010e-02 5.571981418532344632e-01 8.302237707244596310e-01
1.127624511718750000e-02 9.681701660156250000e-03 -2.127685546875000000e-01 2.988426105509953482e-02 5.217054463205578196e-01 8.526021101432121885e-01
1.227569580078125000e-02 9.681701660156250000e-03 -2.127685546875000000e-01 3.628491196473683511e-02 5.006197075724619916e-01 8.649065345768720547e-01
1.327514648437500000e-02 9.681701660156250000e-03 -2.127685546875000000e-01 8.883739774998428151e-02 4.867019597102909545e-01 8.690391931179934915e-01
1.427459716796875000e-02 9.681701660156250000e-03 -2.127685546875000000e-01 1.617902427265613674e-01 4.685446860212673648e-01 8.684985863890122282e-01
1.527404785156250000e-02 9.681701660156250000e-03 -2.127685546875000000e-01 1.756006313486887238e-01 4.535561999559843960e-01 8.737569408888431477e-01
1.634216308593750000e-02 9.727478027343750000e-03 -2.137451171875000000e-01 2.349285188020554527e-01 3.921949076456294203e-01 8.893771671626771180e-01
1.734924316406250000e-02 9.727478027343750000e-03 -2.137451171875000000e-01 2.378963432576142178e-01 3.510116929109477479e-01 9.056467972142595579e-01
1.835632324218750000e-02 9.727478027343750000e-03 -2.137451171875000000e-01 3.002233236232290658e-01 2.956041641779623697e-01 9.069091101501132179e-01
1.945495605468750000e-02 9.773254394531250000e-03 -2.147216796875000000e-01 3.421267558325595814e-01 2.467846211737405038e-01 9.066678739734972403e-01
