5.117797851562500000e-02 3.442382812500000000e-02 -4.145507812500000000e-01 4.474355606939839358e-02 -6.529578967769831266e-01 -7.560714246860831267e-01
5.310058593750000000e-02 3.442382812500000000e-02 -4.145507812500000000e-01 -4.386914975206213790e-02 6.449548221583770724e-01 7.629605331042277339e-01
5.505371093750000000e-02 3.442382812500000000e-02 -4.145507812500000000e-01 3.502301089283207242e-02 -6.383616669927270060e-01 -7.689393804600379578e-01
5.700683593750000000e-02 3.442382812500000000e-02 -4.145507812500000000e-01 2.404478127844023733e-02 -6.398587063965818222e-01 -7.681163221425288956e-01
5.895996093750000000e-02 3.442382812500000000e-02 -4.145507812500000000e-01 -5.829999770381212587e-04 -6.385761303203931760e-01 -7.695584356603852871e-01
6.091308593750000000e-02 3.442382812500000000e-02 -4.145507812500000000e-01 -2.414814140173044896e-02 -6.420222341884760375e-01 -7.663056296768800957e-01
6.280517578125000000e-02 3.442382812500000000e-02 -4.145507812500000000e-01 3.039434777717244310e-02 6.461789530537536130e-01 7.625804510040596895e-01
6.475830078125000000e-02 3.442382812500000000e-02 -4.145507812500000000e-01 -4.408867928074149817e-02 -6.525424047012443607e-01 -7.564685045829721011e-01
6.671142578125000000e-02 3.442382812500000000e-02 -4.145507812500000000e-01 -4.880690390911421317e-02 -6.598141596564947031e-01 -7.498420906081496584e-01
6.884765625000000000e-02 3.451538085937500000e-02 -4.155273437500000000e-01 -4.479107091884194924e-02 -6.621735109857158630e-01 -7.480106959895653773e-01
7.080078125000000000e-02 3.451538085937500000e-02 -4.155273437500000000e-01 -4.103232466621423852e-02 -6.686906266914129926e-01 -7.424077007329137334e-01
7.275390625000000000e-02 3.451538085937500000e-02 -4.155273437500000000e-01 -2.298811403147424728e-02 -6.664687418120684992e-01 -7.451784771453846545e-01
7.470703125000000000e-02 3.451538085937500000e-02 -4.155273437500000000e-01 3.558704841057913626e-03 -6.662269244797288659e-01 -7.457405854036215365e-01
7.666015625000000000e-02 3.451538085937500000e-02 -4.155273437500000000e-01 2.569748399149722473e-02 -6.722662383992098478e-01 -7.398633279363721060e-01
7.861328125000000000e-02 3.451538085937500000e-02 -4.155273437500000000e-01 3.113859919407357957e-02 -6.627775433442482100e-01 -7.481686412024992627e-01
8.056640625000000000e-02 3.451538085937500000e-02 -4.155273437500000000e-01 3.112351908310534432e-02 -6.507020324228472985e-01 -7.586950583473304199e-01
8.227539062500000000e-02 3.442382812500000000e-02 -4.145507812500000000e-01 -2.807615464838152455e-02 6.484734139070659209e-01 7.607193707247603687e-01
8.422851562500000000e-02 3.442382812500000000e-02 -4.145507812500000000e-01 -2.293316491269254895e-02 6.365046704103805020e-01 7.709318222079435401e-01
8.618164062500000000e-02 3.442382812500000000e-02 -4.145507812500000000e-01 1.502733752125626210e-02 -6.238839753306031355e-01 -7.813724876476682013e-01
8.813476562500000000e-02 3.442382812500000000e-02 -4.145507812500000000e-01 -9.024157145962637475e-03 6.290959179771785648e-01 7.772752990879459034e-01
9.008789062500000000e-02 3.442382812500000000e-02 -4.145507812500000000e-01 4.377768885592025257e-04 6.271231033274080602e-01 7.789200354493373002e-01
9.204101562500000000e-02 3.442382812500000000e-02 -4.145507812500000000e-01 7.973012134675092066e-03 6.317677493802978939e-01 7.751167279322859205e-01
9.399414062500000000e-02 3.442382812500000000e-02 -4.145507812500000000e-01 -9.080344948781293724e-03 -6.252689963825005526e-01 -7.803564759124076433e-01
-1.401367187500000000e-01 3.216552734375000000e-02 -4.104003906250000000e-01 2.866460633446063846e-02 -6.718891182248074578e-01 -7.400968539014208813e-01
-1.381835937500000000e-01 3.216552734375000000e-02 -4.104003906250000000e-01 2.583072077468671901e-02 -6.732509416386961432e-01 -7.389627483485677883e-01
-1.363525390625000000e-01 3.216552734375000000e-02 -4.104003906250000000e-01 -3.328314723194540636e-02 6.795568633476092302e-01 7.328674515814544987e-01
-1.343994140625000000e-01 3.216552734375000000e-02 -4.104003906250000000e-01 -4.443109211612200626e-02 6.959585802277952205e-01 7.167060294574619794e-01
-1.324462890625000000e-01 3.216552734375000000e-02 -4.104003906250000000e-01 -6.026124790328860753e-02 7.049083342504169902e-01 7.067339119537429104e-01
-1.304931640625000000e-01 3.216552734375000000e-02 -4.104003906250000000e-01 8.558238700857297154e-02 -7.187038572463939623e-01 -6.900292896776698548e-01
-1.282958984375000000e-01 3.210449218750000000e-02 -4.094238281250000000e-01 1.358529299925102241e-01 -7.287000562059622322e-01 -6.712229208674846959e-01
-1.263427734375000000e-01 3.210449218750000000e-02 -4.094238281250000000e-01 1.619758306219533373e-01 -7.439627926898682020e-01 -6.482925214649791767e-01
-1.241455078125000000e-01 3.201293945312500000e-02 -4.084472656250000000e-01 1.951590208037464191e-01 -7.407510102509750061e-01 -6.428070452407027568e-01
-1.219482421875000000e-01 3.195190429687500000e-02 -4.074707031250000000e-01 2.339000891039449415e-01 -7.327454790105534244e-01 -6.390421044866769762e-01
-1.196899414062500000e-01 3.186035156250000000e-02 -4.064941406250000000e-01 2.692507789049699007e-01 -7.328580944852806089e-01 -6.248384042346228906e-01
-1.169433593750000000e-01 3.161621093750000000e-02 -4.035644531250000000e-01 5.360769915274267161e-01 -6.094600060297955535e-01 -5.841061206707773845e-01
-1.127319335937500000e-01 3.100585937500000000e-02 -3.955078125000000000e-01 7.200086968857576375e-01 -4.896426307912491449e-01 -4.917698349031763838e-01
-1.083374023437500000e-01 3.028869628906250000e-02 -3.864746093750000000e-01 -5.040340823895617106e-01 4.604372076890502763e-01 7.307169230045400532e-01
-1.060180664062500000e-01 3.013610839843750000e-02 -3.842773437500000000e-01 -2.161911676859161469e-01 4.893999124971087356e-01 8.448367325480244938e-01
-1.041870117187500000e-01 3.013610839843750000e-02 -3.842773437500000000e-01 -5.486852512647402008e-02 4.628189570810908315e-01 8.847531056271104033e-01
-1.023559570312500000e-01 3.013610839843750000e-02 -3.842773437500000000e-01 9.081175975593473726e-02 5.025849378656235267e-01 8.597450811261658776e-01
-1.008300781250000000e-01 3.021240234375000000e-02 -3.854980468750000000e-01 2.283758048791162953e-01 5.156608265630360233e-01 8.257956185970849461e-01
-9.899902343750000000e-02 3.021240234375000000e-02 -3.854980468750000000e-01 3.675571859260823304e-01 4.789895886273741743e-01 7.971641544002578961e-01
-9.747314453125000000e-02 3.028869628906250000e-02 -3.864746093750000000e-01 4.602502280641171950e-01 4.229956778401616768e-01 7.805410841816530221e-01
-9.588623046875000000e-02 3.036499023437500000e-02 -3.874511718750000000e-01 5.514780779771011332e-01 3.190862081699468722e-01 7.707502327384713192e-01
-9.454345703125000000e-02 3.053283691406250000e-02 -3.894042968750000000e-01 6.501428013971766173e-01 2.162905635192416964e-01 7.283767774469201983e-01
-9.295654296875000000e-02 3.060913085937500000e-02 -3.903808593750000000e-01 6.843685866816721086e-01 1.234359639361851807e-01 7.186119957045494777e-01
-9.161376953125000000e-02 3.076171875000000000e-02 -3.923339843750000000e-01 6.913418062495405580e-01 1.188804342784912337e-02 7.224300529152150041e-01
-9.002685546875000000e-02 3.083801269531250000e-02 -3.933105468750000000e-01 6.613673364830189305e-01 -6.548428943017010895e-02 7.471981357519457134e-01
-8.837890625000000000e-02 3.091430664062500000e-02 -3.945312500000000000e-01 6.015134439933927935e-01 -1.593550330702123985e-01 7.828074796081083697e-01
-8.697509765625000000e-02 3.108215332031250000e-02 -3.964843750000000000e-01 5.439376486850077130e-01 -2.276286753416426889e-01 8.076614516647641073e-01
-8.532714843750000000e-02 3.115844726562500000e-02 -3.974609375000000000e-01 5.043559351048673145e-01 -2.483813174729252171e-01 8.270017000314502376e-01
-8.367919921875000000e-02 3.123474121093750000e-02 -3.984375000000000000e-01 4.685662831993455679e-01 -2.469258315350060240e-01 8.482177031691195968e-01
-8.197021484375000000e-02 3.131103515625000000e-02 -3.994140625000000000e-01 4.623494937722515963e-01 -2.310305149035206118e-01 8.560711692330007505e-01
-8.032226562500000000e-02 3.137207031250000000e-02 -4.003906250000000000e-01 4.262342980007468585e-01 -1.798106604436977007e-01 8.865621521352080592e-01
-7.843017578125000000e-02 3.137207031250000000e-02 -4.003906250000000000e-01 3.808688703359631722e-01 -2.039656334216870537e-01 9.018519412807719515e-01
-7.678222656250000000e-02 3.146362304687500000e-02 -4.013671875000000000e-01 3.281649200316564263e-01 -2.104876307334250241e-01 9.208706437762287367e-01
-7.507324218750000000e-02 3.155517578125000000e-02 -4.023437500000000000e-01 2.206745788083386284e-01 -1.619478784522336567e-01 9.618085126118312012e-01
-7.318115234375000000e-02 3.155517578125000000e-02 -4.023437500000000000e-01 1.413679161660021388e-01 -1.805396741113934889e-01 9.733552991331758664e-01
-7.128906250000000000e-02 3.155517578125000000e-02 -4.023437500000000000e-01 -9.172191654667630548e-03 -1.919117812731220285e-01 9.813693184060867658e-01
-6.939697265625000000e-02 3.155517578125000000e-02 -4.023437500000000000e-01 -1.311084937119543214e-01 -1.328460488004598872e-01 9.824268370696559449e-01
-6.750488281250000000e-02 3.155517578125000000e-02 -4.023437500000000000e-01 -2.907412756046183766e-01 -1.577151057302066672e-01 9.437136515301179918e-01
-6.542968750000000000e-02 3.146362304687500000e-02 -4.013671875000000000e-01 -4.170541736633796015e-01 -1.311236249308421475e-01 8.993733436204074394e-01
-6.323242187500000000e-02 3.131103515625000000e-02 -3.994140625000000000e-01 -5.284094219033882434e-01 -9.768698805934886154e-02 8.433508968440240894e-01
-6.121826171875000000e-02 3.123474121093750000e-02 -3.984375000000000000e-01 -5.712051198022141119e-01 -8.002589373969362652e-02 8.168969135961413608e-01
-5.905151367187500000e-02 3.108215332031250000e-02 -3.964843750000000000e-01 -5.978219871247191231e-01 -5.238871931636521900e-02 7.999151791275392887e-01
-5.703735351562500000e-02 3.100585937500000000e-02 -3.955078125000000000e-01 -6.159125361617336925e-01 -9.002660307075239371e-03 7.877630988477540841e-01
-5.490112304687500000e-02 3.083801269531250000e-02 -3.933105468750000000e-01 -6.128935501224308524e-01 4.781998644524201175e-02 7.887171515281636847e-01
-5.279541015625000000e-02 3.068542480468750000e-02 -3.913574218750000000e-01 -5.473233434260093011e-01 1.092329644599241006e-01 8.297622052228408318e-01
-5.081176757812500000e-02 3.060913085937500000e-02 -3.903808593750000000e-01 -4.767776204113972627e-01 1.970096754005642437e-01 8.566622954661947675e-01
-4.885864257812500000e-02 3.053283691406250000e-02 -3.894042968750000000e-01 -3.215154897804510803e-01 2.761200374243167333e-01 9.057513537191267394e-01
-4.690551757812500000e-02 3.045654296875000000e-02 -3.884277343750000000e-01 -1.042165404877521961e-01 4.238851392541065355e-01 8.997001174882058860e-01
-4.507446289062500000e-02 3.045654296875000000e-02 -3.884277343750000000e-01 1.922096417711067692e-02 4.946520237392146302e-01 8.688785472934648091e-01
-4.324340820312500000e-02 3.045654296875000000e-02 -3.884277343750000000e-01 2.095467649205987881e-01 5.502800528363073207e-01 8.082586323459726163e-01
-4.153442382812500000e-02 3.053283691406250000e-02 -3.894042968750000000e-01 4.142798323383303782e-01 5.530806691151648469e-01 7.228236257683103849e-01
-3.991699218750000000e-02 3.068542480468750000e-02 -3.913574218750000000e-01 5.192689523875255730e-01 5.757686342188630402e-01 6.315459088111542441e-01
-3.826904296875000000e-02 3.083801269531250000e-02 -3.933105468750000000e-01 6.885255967635299790e-01 5.422834746596675304e-01 4.815196109323719997e-01
-3.680419921875000000e-02 3.115844726562500000e-02 -3.974609375000000000e-01 7.646980745141787050e-01 5.402685228109804783e-01 3.512075997098419999e-01
-3.527832031250000000e-02 3.146362304687500000e-02 -4.013671875000000000e-01 7.129181321558069051e-01 5.812115734654588195e-01 3.923529580789230087e-01
-3.372192382812500000e-02 3.176879882812500000e-02 -4.055175781250000000e-01 -5.732588052446107030e-01 -6.385199572205789709e-01 -5.134847674863896039e-01
-3.198242187500000000e-02 3.195190429687500000e-02 -4.074707031250000000e-01 -4.621282275328316702e-01 -6.919163045788104816e-01 -5.546975110592854419e-01
-3.015136718750000000e-02 3.201293945312500000e-02 -4.084472656250000000e-01 -3.560441128137818434e-01 -7.017230943270149623e-01 -6.171039528464926649e-01
-2.828979492187500000e-02 3.210449218750000000e-02 -4.094238281250000000e-01 -2.704539250203865652e-01 -7.053103874124354578e-01 -6.552800407834710184e-01
-2.644348144531250000e-02 3.216552734375000000e-02 -4.104003906250000000e-01 1.633693998675098402e-01 6.942817743981859469e-01 7.009160127472020552e-01
-2.450561523437500000e-02 3.216552734375000000e-02 -4.104003906250000000e-01 1.039042920510984958e-01 6.849490319803149818e-01 7.211440367101357163e-01
-2.258300781250000000e-02 3.216552734375000000e-02 -4.104003906250000000e-01 6.514108596079759561e-02 6.622012899431664046e-01 7.464891764235126459e-01
-2.066040039062500000e-02 3.216552734375000000e-02 -4.104003906250000000e-01 2.293091517286766426e-02 6.531597140858028672e-01 7.568728830026127952e-01
-1.872253417968750000e-02 3.216552734375000000e-02 -4.104003906250000000e-01 1.947198189899470439e-02 6.495509894224918979e-01 7.600686508870018177e-01
-1.679992675781250000e-02 3.216552734375000000e-02 -4.104003906250000000e-01 1.236389857889690948e-02 6.459864325047074418e-01 7.632487556699792952e-01
-1.486968994140625000e-02 3.216552734375000000e-02 -4.104003906250000000e-01 1.561988999534618099e-03 6.423252555347436221e-01 7.664305749985393934e-01
-1.294708251953125000e-02 3.216552734375000000e-02 -4.104003906250000000e-01 1.563394257797508886e-03 6.423215571548087643e-01 7.664336716328533639e-01
-1.101684570312500000e-02 3.216552734375000000e-02 -4.104003906250000000e-01 1.573357889948041530e-03 6.423177821498454731e-01 7.664368149293545596e-01
-9.086608886718750000e-03 3.216552734375000000e-02 -4.104003906250000000e-01 1.578736764240423838e-03 6.423140037452016449e-01 7.664399703714820378e-01
-7.160186767578125000e-03 3.216552734375000000e-02 -4.104003906250000000e-01 -9.347936255362518723e-03 6.467363629998256203e-01 7.626563399471111282e-01
-5.233764648437500000e-03 3.216552734375000000e-02 -4.104003906250000000e-01 -1.655369630743774162e-02 6.507792835819508070e-01 7.590864899332117055e-01
-3.305435180664062500e-03 3.216552734375000000e-02 -4.104003906250000000e-01 -2.302132979036228266e-02 6.524985354501533497e-01 7.574402152051925574e-01
-1.377105712890625000e-03 3.216552734375000000e-02 -4.104003906250000000e-01 1.434930779408498738e-02 6.686301731266068860e-01 7.434566490055182220e-01
5.497932434082031250e-04 3.216552734375000000e-02 -4.104003906250000000e-01 3.977405672030681627e-02 6.804527506520325897e-01 7.317117455269476212e-01
2.477645874023437500e-03 3.216552734375000000e-02 -4.104003906250000000e-01 5.407783709713197967e-02 6.902480777142804280e-01 7.215491519963395106e-01
4.417419433593750000e-03 3.225708007812500000e-02 -4.113769531250000000e-01 5.798771127655892588e-02 6.992825800762102473e-01 7.124895076721237119e-01
6.347656250000000000e-03 3.225708007812500000e-02 -4.113769531250000000e-01 4.870610269854444563e-02 6.992279022032775737e-01 7.132377277880933564e-01
8.277893066406250000e-03 3.225708007812500000e-02 -4.113769531250000000e-01 2.949746262930896465e-02 6.989901665424143040e-01 7.145226705818650270e-01
1.021575927734375000e-02 3.225708007812500000e-02 -4.113769531250000000e-01 1.704187507722401337e-02 6.896323830207177208e-01 7.239590808761350305e-01
1.214599609375000000e-02 3.225708007812500000e-02 -4.113769531250000000e-01 4.092304688580739730e-02 6.811997543141838918e-01 7.309529389474247463e-01
1.407623291015625000e-02 3.225708007812500000e-02 -4.113769531250000000e-01 5.384884777378436821e-02 6.714160659593286784e-01 7.391216191974999683e-01
1.600646972656250000e-02 3.225708007812500000e-02 -4.113769531250000000e-01 6.637956754850581065e-02 6.646597084770808905e-01 7.441916587407005901e-01
1.799011230468750000e-02 3.231811523437500000e-02 -4.125976562500000000e-01 6.998376829678440436e-02 6.643333610063394401e-01 7.441528456096921929e-01
1.992797851562500000e-02 3.231811523437500000e-02 -4.125976562500000000e-01 3.155121456404394453e-02 6.748676100600221606e-01 7.372640163139712044e-01
2.186584472656250000e-02 3.231811523437500000e-02 -4.125976562500000000e-01 -2.317859517317207539e-03 6.767517396509741268e-01 7.362076544064439787e-01
2.380371093750000000e-02 3.231811523437500000e-02 -4.125976562500000000e-01 1.297314058845618935e-02 6.867404471266180810e-01 7.267869398273506532e-01
2.568054199218750000e-02 3.225708007812500000e-02 -4.113769531250000000e-01 1.418039787317184816e-02 6.855839023276233402e-01 7.278555002096132043e-01
2.767944335937500000e-02 3.231811523437500000e-02 -4.125976562500000000e-01 -2.300164023505732111e-02 -7.151378817516355069e-01 -6.986048487022407105e-01
2.961730957031250000e-02 3.231811523437500000e-02 -4.125976562500000000e-01 -2.027058220584351811e-02 -7.078835173226283306e-01 -7.060382634106882049e-01
3.161621093750000000e-02 3.240966796875000000e-02 -4.135742187500000000e-01 -1.550118888736470336e-02 -7.215558911633394024e-01 -6.921826414108905867e-01
3.347778320312500000e-02 3.231811523437500000e-02 -4.125976562500000000e-01 -1.269022750282845086e-02 -7.263468440926764691e-01 -6.872111903938523669e-01
3.543090820312500000e-02 3.231811523437500000e-02 -4.125976562500000000e-01 2.837899595750193252e-02 -7.302914112010890912e-01 -6.825460331101237399e-01
3.735351562500000000e-02 3.231811523437500000e-02 -4.125976562500000000e-01 -1.218082488106480904e-03 -7.296907042780994557e-01 -6.837762736196565383e-01
3.930664062500000000e-02 3.231811523437500000e-02 -4.125976562500000000e-01 -3.863427678222450951e-02 -7.214660333733446951e-01 -6.913712138540671903e-01
4.132080078125000000e-02 3.240966796875000000e-02 -4.135742187500000000e-01 -7.324696547791988144e-02 -7.202464786113187412e-01 -6.898404830801623255e-01
4.318237304687500000e-02 3.231811523437500000e-02 -4.125976562500000000e-01 -7.865884044353563254e-02 -7.163941944270909579e-01 -6.932475351641993466e-01
4.522705078125000000e-02 3.240966796875000000e-02 -4.135742187500000000e-01 5.831917418593437347e-02 6.988512793115831956e-01 7.128855190890288629e-01
4.714965820312500000e-02 3.240966796875000000e-02 -4.135742187500000000e-01 1.911805639520353095e-02 6.814341641225096780e-01 7.316296740061370985e-01
4.910278320312500000e-02 3.240966796875000000e-02 -4.135742187500000000e-01 -1.899459927819643554e-02 6.695683985387382853e-01 7.425074847276154077e-01
5.105590820312500000e-02 3.240966796875000000e-02 -4.135742187500000000e-01 -4.056696453599092922e-02 6.582278742730292009e-01 7.517249409979323005e-01
5.297851562500000000e-02 3.240966796875000000e-02 -4.135742187500000000e-01 -4.021878247751654867e-02 6.479887035445069943e-01 7.605873320104241664e-01
5.477905273437500000e-02 3.231811523437500000e-02 -4.125976562500000000e-01 -3.174970283524929104e-02 6.457588660762365596e-01 7.628810151352610758e-01
5.673217773437500000e-02 3.231811523437500000e-02 -4.125976562500000000e-01 -1.833912099460707767e-02 6.409205618035463958e-01 7.673881091719961800e-01
5.865478515625000000e-02 3.231811523437500000e-02 -4.125976562500000000e-01 -1.137893637223286875e-02 6.404273861748399632e-01 7.679344261356558787e-01
6.060791015625000000e-02 3.231811523437500000e-02 -4.125976562500000000e-01 1.025538624241797633e-02 6.399739740607010008e-01 7.683281457671403691e-01
6.250000000000000000e-02 3.231811523437500000e-02 -4.125976562500000000e-01 2.890018380852142979e-02 6.441299342425264030e-01 7.643699413167373002e-01
6.445312500000000000e-02 3.231811523437500000e-02 -4.125976562500000000e-01 4.002116153369344315e-02 6.479372209819322936e-01 7.606416135708753412e-01
6.658935546875000000e-02 3.240966796875000000e-02 -4.135742187500000000e-01 4.511469095889042435e-02 6.558385729284040844e-01 7.535518767270892315e-01
6.848144531250000000e-02 3.240966796875000000e-02 -4.135742187500000000e-01 4.109713848064219105e-02 6.665974297203111076e-01 7.442841472844747841e-01
7.043457031250000000e-02 3.240966796875000000e-02 -4.135742187500000000e-01 3.252889540178130479e-02 6.753470213414793921e-01 7.367823774556035987e-01
7.238769531250000000e-02 3.240966796875000000e-02 -4.135742187500000000e-01 2.265458497635691737e-02 6.840001056082207764e-01 7.291300469103518811e-01
7.434082031250000000e-02 3.240966796875000000e-02 -4.135742187500000000e-01 8.647117125575360178e-03 6.967162369617323492e-01 7.172947180338775652e-01
7.629394531250000000e-02 3.240966796875000000e-02 -4.135742187500000000e-01 -1.212270493229885074e-02 6.872018614356444344e-01 7.263653637560850695e-01
7.824707031250000000e-02 3.240966796875000000e-02 -4.135742187500000000e-01 -1.762024365408102963e-02 6.760231243092551523e-01 7.366697105302513204e-01
8.013916015625000000e-02 3.240966796875000000e-02 -4.135742187500000000e-01 -2.561327661640362338e-02 6.666397906464002210e-01 7.449398295083271559e-01
8.209228515625000000e-02 3.240966796875000000e-02 -4.135742187500000000e-01 -2.317213976859598332e-02 6.585767630431529351e-01 7.521566985131141747e-01
8.404541015625000000e-02 3.240966796875000000e-02 -4.135742187500000000e-01 -1.909828081919554693e-02 6.486408832644394717e-01 7.608549534751541943e-01
8.599853515625000000e-02 3.240966796875000000e-02 -4.135742187500000000e-01 -1.208286615407662239e-02 6.446282282619669735e-01 7.644007140717100635e-01
8.795166015625000000e-02 3.240966796875000000e-02 -4.135742187500000000e-01 -1.407308202923880083e-03 6.401465435506954460e-01 7.682515358030334029e-01
8.990478515625000000e-02 3.240966796875000000e-02 -4.135742187500000000e-01 8.161376194652895932e-04 6.351119887379441664e-01 7.724196370372258258e-01
9.179687500000000000e-02 3.240966796875000000e-02 -4.135742187500000000e-01 -8.868796580169729937e-03 -6.233252429153394170e-01 -7.819123902278007909e-01
9.375000000000000000e-02 3.240966796875000000e-02 -4.135742187500000000e-01 -8.868796580169729937e-03 -6.233252429153394170e-01 -7.819123902278007909e-01
-1.395263671875000000e-01 3.010559082031250000e-02 -4.084472656250000000e-01 4.625025759921586044e-02 -6.652902175966808329e-01 -7.451508840779610399e-01
-1.375732421875000000e-01 3.010559082031250000e-02 -4.084472656250000000e-01 5.229605754658971095e-02 -6.671729975961714354e-01 -7.430648111999532679e-01
-1.356201171875000000e-01 3.010559082031250000e-02 -4.084472656250000000e-01 -6.601172732713041225e-02 6.743665449348118512e-01 7.354401504731523653e-01
-1.336669921875000000e-01 3.010559082031250000e-02 -4.084472656250000000e-01 -6.342040587475597513e-02 6.823931499859449135e-01 7.282289756463559138e-01
-1.318359375000000000e-01 3.010559082031250000e-02 -4.084472656250000000e-01 -9.514170916359585006e-02 6.908578183122735528e-01 7.167032370892677529e-01
-1.295166015625000000e-01 3.002929687500000000e-02 -4.074707031250000000e-01 -1.246965576203945270e-01 6.989300530649981136e-01 7.042354360866701635e-01
-1.276855468750000000e-01 3.002929687500000000e-02 -4.074707031250000000e-01 1.779142882575092122e-01 -6.980249075353109900e-01 -6.936193008373860991e-01
-1.253662109375000000e-01 2.995300292968750000e-02 -4.064941406250000000e-01 2.156515483284819068e-01 -6.983865025276501104e-01 -6.824593048605354095e-01
-1.232299804687500000e-01 2.987670898437500000e-02 -4.055175781250000000e-01 2.549597843342229497e-01 -7.044347954718210847e-01 -6.623949934146695639e-01
-1.210327148437500000e-01 2.981567382812500000e-02 -4.045410156250000000e-01 2.961114774384665527e-01 -7.025469425221599895e-01 -6.471056996209916257e-01
-1.188354492187500000e-01 2.973937988281250000e-02 -4.035644531250000000e-01 4.739766321057894416e-01 -6.457283356312508715e-01 -5.986493704837145824e-01
-1.160888671875000000e-01 2.951049804687500000e-02 -4.003906250000000000e-01 -5.776568259358998425e-01 5.233159398615299107e-01 6.264607078951599517e-01
-1.121826171875000000e-01 2.899169921875000000e-02 -3.933105468750000000e-01 7.448658512418244726e-01 -4.548198428241727043e-01 -4.881739180120002186e-01
-1.080932617187500000e-01 2.839660644531250000e-02 -3.854980468750000000e-01 -4.579019152071722720e-01 3.808488241075791425e-01 8.032932274241317838e-01
-1.060180664062500000e-01 2.833557128906250000e-02 -3.842773437500000000e-01 -3.347128224407483477e-01 4.271171737582454830e-01 8.399632410852970743e-01
-1.039428710937500000e-01 2.825927734375000000e-02 -3.833007812500000000e-01 -6.071520995700882550e-02 4.489438868914244485e-01 8.914948399753619412e-01
-1.021118164062500000e-01 2.825927734375000000e-02 -3.833007812500000000e-01 1.353450642940331738e-01 4.344778241736653723e-01 8.904553519815361362e-01
-1.005859375000000000e-01 2.833557128906250000e-02 -3.842773437500000000e-01 2.623313880512286866e-01 4.329920229234751616e-01 8.623805140004918712e-01
-9.875488281250000000e-02 2.833557128906250000e-02 -3.842773437500000000e-01 3.998057655627004769e-01 4.102235903999330024e-01 8.196779585314046823e-01
-9.722900390625000000e-02 2.839660644531250000e-02 -3.854980468750000000e-01 5.356684231394654994e-01 3.142350052267749438e-01 7.837829431299251359e-01
-9.588623046875000000e-02 2.854919433593750000e-02 -3.874511718750000000e-01 6.466335712420198112e-01 2.223098518594719131e-01 7.296871619461393621e-01
-9.429931640625000000e-02 2.862548828125000000e-02 -3.884277343750000000e-01 7.275051997733311682e-01 1.513542767755125806e-01 6.691995720295454975e-01
-9.295654296875000000e-02 2.877807617187500000e-02 -3.903808593750000000e-01 7.555269344669773846e-01 5.407688589013290997e-02 6.528818742371065298e-01
-9.161376953125000000e-02 2.891540527343750000e-02 -3.923339843750000000e-01 7.390753673060906914e-01 -2.277013785661828951e-02 6.732377902816789605e-01
-9.002685546875000000e-02 2.899169921875000000e-02 -3.933105468750000000e-01 7.142599704853013209e-01 -7.639568116653705498e-02 6.956984939335698614e-01
-8.862304687500000000e-02 2.914428710937500000e-02 -3.955078125000000000e-01 6.400423995010625644e-01 -1.438302552822210423e-01 7.547573017244506577e-01
-8.697509765625000000e-02 2.922058105468750000e-02 -3.964843750000000000e-01 5.725825647269449092e-01 -1.557123346179840884e-01 8.049241426485670425e-01
-8.532714843750000000e-02 2.929687500000000000e-02 -3.974609375000000000e-01 5.074217044838181812e-01 -1.731443932439748201e-01 8.441233517128362562e-01
-8.367919921875000000e-02 2.935791015625000000e-02 -3.984375000000000000e-01 4.685088608863913207e-01 -1.519456393662762805e-01 8.702941858639006156e-01
-8.197021484375000000e-02 2.943420410156250000e-02 -3.994140625000000000e-01 4.468934229739561781e-01 -1.327544945385408237e-01 8.846821534779807372e-01
-8.032226562500000000e-02 2.951049804687500000e-02 -4.003906250000000000e-01 4.350512311047918801e-01 -7.499818065963501090e-02 8.972768241807818068e-01
-7.861328125000000000e-02 2.958679199218750000e-02 -4.013671875000000000e-01 3.818480211309175365e-01 -5.587814515797871057e-02 9.225344013380238906e-01
-7.696533203125000000e-02 2.966308593750000000e-02 -4.023437500000000000e-01 3.052732494532447993e-01 -5.050623079552230693e-02 9.509244785045164461e-01
-7.507324218750000000e-02 2.966308593750000000e-02 -4.023437500000000000e-01 2.380537596176959814e-01 -4.492329504474503604e-02 9.702125051215342300e-01
-7.336425781250000000e-02 2.973937988281250000e-02 -4.035644531250000000e-01 1.180561958727872618e-01 -7.268685128184045399e-03 9.929803124093415923e-01
-7.147216796875000000e-02 2.973937988281250000e-02 -4.035644531250000000e-01 1.152414090872598551e-02 -1.788245584650934375e-02 9.997736803643179071e-01
-6.939697265625000000e-02 2.966308593750000000e-02 -4.023437500000000000e-01 -1.561494156044772874e-01 -1.548075283035757824e-02 9.876121234058367060e-01
-6.750488281250000000e-02 2.966308593750000000e-02 -4.023437500000000000e-01 -3.048341461119928320e-01 -4.609975859974856614e-03 9.523942941275650442e-01
-6.542968750000000000e-02 2.958679199218750000e-02 -4.013671875000000000e-01 -4.054756822345961798e-01 1.087631726549526112e-02 9.140411242603525555e-01
-6.341552734375000000e-02 2.951049804687500000e-02 -4.003906250000000000e-01 -5.189464786273814134e-01 -2.932049092165568954e-03 8.548017053143739385e-01
-6.121826171875000000e-02 2.935791015625000000e-02 -3.984375000000000000e-01 -5.624960892094174048e-01 1.237675256052872541e-02 8.267073034757626004e-01
-5.905151367187500000e-02 2.922058105468750000e-02 -3.964843750000000000e-01 -6.076756853288747262e-01 1.170291077602008366e-02 7.940990513402286233e-01
-5.703735351562500000e-02 2.914428710937500000e-02 -3.955078125000000000e-01 -6.345661819082482058e-01 3.560686756619976107e-02 7.720478688271285028e-01
-5.490112304687500000e-02 2.899169921875000000e-02 -3.933105468750000000e-01 -6.263337023612207677e-01 6.789384487138531987e-02 7.765928914914597136e-01
-5.279541015625000000e-02 2.883911132812500000e-02 -3.913574218750000000e-01 -6.193623709782094533e-01 1.429091063279839258e-01 7.719891454837871647e-01
-5.068969726562500000e-02 2.870178222656250000e-02 -3.894042968750000000e-01 -5.081621202952114613e-01 2.678102736903975600e-01 8.185651573350466448e-01
-4.873657226562500000e-02 2.862548828125000000e-02 -3.884277343750000000e-01 -3.764224010593304470e-01 3.654708564033664620e-01 8.513149999268886381e-01
-4.678344726562500000e-02 2.854919433593750000e-02 -3.874511718750000000e-01 -2.088393330600592235e-01 4.539412247704446290e-01 8.662121549718281299e-01
-4.495239257812500000e-02 2.854919433593750000e-02 -3.874511718750000000e-01 -7.354862239839907168e-02 5.341556389068410349e-01 8.421807131295053761e-01
-4.315185546875000000e-02 2.854919433593750000e-02 -3.874511718750000000e-01 1.274603518882850561e-01 5.999842985684045171e-01 7.897928210409954630e-01
-4.132080078125000000e-02 2.854919433593750000e-02 -3.874511718750000000e-01 3.438785524702576146e-01 6.046726781051106059e-01 7.184138734073511889e-01
-3.970336914062500000e-02 2.870178222656250000e-02 -3.894042968750000000e-01 5.015583896151065701e-01 5.583670507385897208e-01 6.608066422609493173e-01
-3.808593750000000000e-02 2.883911132812500000e-02 -3.913574218750000000e-01 6.377291612953454036e-01 5.376274462051228165e-01 5.515960894717194529e-01
-3.631591796875000000e-02 2.891540527343750000e-02 -3.923339843750000000e-01 7.459868315220835600e-01 4.922307764500226668e-01 4.485671743574761727e-01
-3.509521484375000000e-02 2.943420410156250000e-02 -3.994140625000000000e-01 7.447256207740005074e-01 5.518933617667216573e-01 3.752298855376610676e-01
-3.347778320312500000e-02 2.966308593750000000e-02 -4.023437500000000000e-01 6.298666167678399486e-01 6.021464910439803253e-01 4.905992747700070322e-01
-3.173828125000000000e-02 2.981567382812500000e-02 -4.045410156250000000e-01 -5.259724068455561286e-01 -6.323114550325852345e-01 -5.688015920087315935e-01
-2.999877929687500000e-02 2.995300292968750000e-02 -4.064941406250000000e-01 -4.351570162700341693e-01 -6.560318845918493569e-01 -6.166526879774608672e-01
-2.815246582031250000e-02 3.002929687500000000e-02 -4.074707031250000000e-01 -3.223920786526815463e-01 -6.796828258596749883e-01 -6.588585613418177500e-01
-2.630615234375000000e-02 3.010559082031250000e-02 -4.084472656250000000e-01 2.155287606506149367e-01 6.689863703970596598e-01 7.113399957512426264e-01
-2.438354492187500000e-02 3.010559082031250000e-02 -4.084472656250000000e-01 1.420693881484827170e-01 6.624740061134558600e-01 7.354892794426745040e-01
-2.247619628906250000e-02 3.010559082031250000e-02 -4.084472656250000000e-01 8.214854519150488477e-02 6.512266787183996763e-01 7.544239056712886971e-01
-2.059936523437500000e-02 3.018188476562500000e-02 -4.094238281250000000e-01 3.298115473232075823e-02 6.430010411168737283e-01 7.651548239115657513e-01
-1.867675781250000000e-02 3.018188476562500000e-02 -4.094238281250000000e-01 1.929899636378585095e-02 6.386456375470337399e-01 7.692589280479580349e-01
-1.675415039062500000e-02 3.018188476562500000e-02 -4.094238281250000000e-01 1.219576996905193632e-02 6.385240961547204996e-01 7.695051928510030503e-01
-1.483917236328125000e-02 3.018188476562500000e-02 -4.094238281250000000e-01 1.421509221123285318e-03 6.383830173021476373e-01 7.697175472416749598e-01
-1.290893554687500000e-02 3.018188476562500000e-02 -4.094238281250000000e-01 1.423479887399090038e-03 6.383797013007384002e-01 7.697202937900169406e-01
-1.098632812500000000e-02 3.018188476562500000e-02 -4.094238281250000000e-01 1.436491205464001525e-03 6.383758364036841160e-01 7.697234750148349569e-01
-9.063720703125000000e-03 3.018188476562500000e-02 -4.094238281250000000e-01 1.441811399731448336e-03 6.383723678313842909e-01 7.697263417405172392e-01
-7.144927978515625000e-03 3.018188476562500000e-02 -4.094238281250000000e-01 -9.867198451657217470e-03 6.392622400792350446e-01 7.689255014652552900e-01
-5.218505859375000000e-03 3.018188476562500000e-02 -4.094238281250000000e-01 -1.747846349121609869e-02 6.398617965659462170e-01 7.682912108109696270e-01
-3.297805786132812500e-03 3.018188476562500000e-02 -4.094238281250000000e-01 -2.140689580912511283e-02 6.403309223241768766e-01 7.678007910436706052e-01
-1.370429992675781250e-03 3.010559082031250000e-02 -4.084472656250000000e-01 8.669737425262293538e-04 6.435953810751925408e-01 7.653654250194527053e-01
5.474090576171875000e-04 3.010559082031250000e-02 -4.084472656250000000e-01 1.764874520299648808e-02 6.485695349413330701e-01 7.609507737946933359e-01
2.466201782226562500e-03 3.010559082031250000e-02 -4.084472656250000000e-01 3.658469361560180710e-02 6.611409159203489594e-01 7.493692344158883190e-01
4.394531250000000000e-03 3.018188476562500000e-02 -4.094238281250000000e-01 4.784333371067029522e-02 6.721201631137040389e-01 7.388947839546962104e-01
6.317138671875000000e-03 3.018188476562500000e-02 -4.094238281250000000e-01 3.835253746894737997e-02 6.827464620880537849e-01 7.296481010568991454e-01
8.239746093750000000e-03 3.018188476562500000e-02 -4.094238281250000000e-01 3.641076592520396671e-02 6.836257728675056988e-01 7.289239046677268297e-01
1.016235351562500000e-02 3.018188476562500000e-02 -4.094238281250000000e-01 3.761676172218982039e-02 6.772371752596094696e-01 7.348025501343343757e-01
1.208496093750000000e-02 3.018188476562500000e-02 -4.094238281250000000e-01 6.244386815245984296e-02 6.718371433498027123e-01 7.380620679493932190e-01
1.400756835937500000e-02 3.018188476562500000e-02 -4.094238281250000000e-01 7.241658868836829688e-02 6.659178954332060085e-01 7.425019826401472178e-01
1.597595214843750000e-02 3.025817871093750000e-02 -4.104003906250000000e-01 7.426131278527696444e-02 6.526099839827051996e-01 7.540460637318522341e-01
1.789855957031250000e-02 3.025817871093750000e-02 -4.104003906250000000e-01 6.885965007616863531e-02 6.479231924795443298e-01 7.585867684309441916e-01
1.982116699218750000e-02 3.025817871093750000e-02 -4.104003906250000000e-01 2.616051243043837279e-02 6.480931951067188113e-01 7.611115805489635511e-01
2.175903320312500000e-02 3.025817871093750000e-02 -4.104003906250000000e-01 -5.222491312440477249e-03 6.482575463408570826e-01 7.614032303560466231e-01
2.368164062500000000e-02 3.025817871093750000e-02 -4.104003906250000000e-01 -2.301853494794614194e-02 6.537503063169246564e-01 7.563601549786828082e-01
2.554321289062500000e-02 3.018188476562500000e-02 -4.094238281250000000e-01 -1.095360939530922936e-02 6.441809819242918511e-01 7.647946658863866709e-01
2.746582031250000000e-02 3.018188476562500000e-02 -4.094238281250000000e-01 1.936865555996668611e-02 6.484946485482807610e-01 7.609727629725268061e-01
2.946472167968750000e-02 3.025817871093750000e-02 -4.104003906250000000e-01 2.283515811470251955e-02 6.893522236627204203e-01 7.240663417706550975e-01
3.140258789062500000e-02 3.025817871093750000e-02 -4.104003906250000000e-01 1.411416930550416296e-02 7.022214615475335098e-01 7.118186631206444570e-01
3.332519531250000000e-02 3.025817871093750000e-02 -4.104003906250000000e-01 -2.703204968713833131e-02 7.056441133334702132e-01 7.080506010219417279e-01
3.515625000000000000e-02 3.018188476562500000e-02 -4.094238281250000000e-01 -2.813171714871154014e-02 6.857747372874123393e-01 7.272699747608487586e-01
3.707885742187500000e-02 3.018188476562500000e-02 -4.094238281250000000e-01 2.013275404834872009e-02 6.865567638558079944e-01 7.267974148401112888e-01
3.900146484375000000e-02 3.018188476562500000e-02 -4.094238281250000000e-01 5.145919296548391586e-02 6.823103454343796281e-01 7.292493016606587108e-01
4.092407226562500000e-02 3.018188476562500000e-02 -4.094238281250000000e-01 8.553170014991492986e-02 6.782059873452681575e-01 7.298773643554752333e-01
4.296875000000000000e-02 3.025817871093750000e-02 -4.104003906250000000e-01 9.017421822157369038e-02 6.944679700700101543e-01 7.138507189286619203e-01
4.498291015625000000e-02 3.031921386718750000e-02 -4.113769531250000000e-01 7.504483223674547621e-02 6.961068402803965993e-01 7.140052801411214123e-01
4.693603515625000000e-02 3.031921386718750000e-02 -4.113769531250000000e-01 4.605746150292870655e-02 7.008925926117104410e-01 7.117782546987097003e-01
4.885864257812500000e-02 3.031921386718750000e-02 -4.113769531250000000e-01 1.163123502349447738e-02 6.877618467244663858e-01 7.258432038408708653e-01
5.078125000000000000e-02 3.031921386718750000e-02 -4.113769531250000000e-01 -2.791922039237349634e-02 6.759713033487591005e-01 7.363988825233659385e-01
5.273437500000000000e-02 3.031921386718750000e-02 -4.113769531250000000e-01 -2.867784184593511962e-02 6.658370752166956619e-01 7.455458206266976084e-01
5.465698242187500000e-02 3.031921386718750000e-02 -4.113769531250000000e-01 -2.233113299603761703e-02 6.549433256872593256e-01 7.553479732128933755e-01
5.657958984375000000e-02 3.031921386718750000e-02 -4.113769531250000000e-01 -1.888303336934033655e-02 6.512066426205737057e-01 7.586654991876280452e-01
5.853271484375000000e-02 3.031921386718750000e-02 -4.113769531250000000e-01 -1.182856147886886256e-02 6.472962595044766676e-01 7.621467296819253168e-01
6.045532226562500000e-02 3.031921386718750000e-02 -4.113769531250000000e-01 9.755696944071946819e-03 6.468273641177260114e-01 7.625740537191454393e-01
6.237792968750000000e-02 3.031921386718750000e-02 -4.113769531250000000e-01 1.687787649257974087e-02 6.504053963772805647e-01 7.593997350858202600e-01
6.433105468750000000e-02 3.031921386718750000e-02 -4.113769531250000000e-01 2.342014244592018762e-02 6.567834078765473205e-01 7.537154980932008197e-01
6.622314453125000000e-02 3.031921386718750000e-02 -4.113769531250000000e-01 2.791570018200569686e-02 6.681255257537263015e-01 7.435247107659940236e-01
6.817626953125000000e-02 3.031921386718750000e-02 -4.113769531250000000e-01 2.534064994490345737e-02 6.789630638577777155e-01 7.337349721644929046e-01
7.012939453125000000e-02 3.031921386718750000e-02 -4.113769531250000000e-01 1.601750856130754880e-02 6.893585649780672453e-01 7.242431969379266032e-01
7.202148437500000000e-02 3.031921386718750000e-02 -4.113769531250000000e-01 1.980524193018149152e-04 6.990570660952125648e-01 7.150658564898709768e-01
7.397460937500000000e-02 3.031921386718750000e-02 -4.113769531250000000e-01 9.259422444442014233e-03 6.938914467062079483e-01 7.200200853337086482e-01
7.592773437500000000e-02 3.031921386718750000e-02 -4.113769531250000000e-01 1.423758170322469291e-02 6.881733944386977386e-01 7.254065552874224831e-01
7.781982421875000000e-02 3.031921386718750000e-02 -4.113769531250000000e-01 2.560258047260031544e-03 6.809975846027170876e-01 7.322811856411418630e-01
7.977294921875000000e-02 3.031921386718750000e-02 -4.113769531250000000e-01 -1.819275464375047719e-03 6.678507437833908211e-01 7.442930029664099889e-01
8.172607421875000000e-02 3.031921386718750000e-02 -4.113769531250000000e-01 -6.612125874128299205e-03 6.532774026659713407e-01 7.570897667763230032e-01
8.361816406250000000e-02 3.031921386718750000e-02 -4.113769531250000000e-01 -1.148800816587515310e-02 6.413478994387319387e-01 7.671641920435983142e-01
8.557128906250000000e-02 3.031921386718750000e-02 -4.113769531250000000e-01 -4.743549549332390890e-03 6.328666514505320029e-01 7.742462787895488807e-01
8.752441406250000000e-02 3.031921386718750000e-02 -4.113769531250000000e-01 7.307375047427950958e-03 6.283617152746840961e-01 7.778869821811990048e-01
8.941650390625000000e-02 3.031921386718750000e-02 -4.113769531250000000e-01 1.763388048067585090e-02 6.169923994070658502e-01 7.867715204130769635e-01
9.136962890625000000e-02 3.031921386718750000e-02 -4.113769531250000000e-01 2.242198674975868361e-02 6.079617342857955853e-01 7.936496608418611709e-01
9.332275390625000000e-02 3.031921386718750000e-02 -4.113769531250000000e-01 -3.442142884075637121e-02 -6.078018441905173042e-01 -7.933423494527233055e-01
-1.391601562500000000e-01 2.812194824218750000e-02 -4.074707031250000000e-01 5.702719984948255438e-02 -6.680887772287665838e-01 -7.418930409555670735e-01
-1.372070312500000000e-01 2.812194824218750000e-02 -4.074707031250000000e-01 -6.481550057352615524e-02 6.653936011808696538e-01 7.436735213741020312e-01
-1.350097656250000000e-01 2.804565429687500000e-02 -4.064941406250000000e-01 -8.297045193656869821e-02 6.663155426559107530e-01 7.410394737938058585e-01
-1.330566406250000000e-01 2.804565429687500000e-02 -4.064941406250000000e-01 -9.735444510396444595e-02 6.713754362512467377e-01 7.346952671801740831e-01
-1.311035156250000000e-01 2.804565429687500000e-02 -4.064941406250000000e-01 -1.212820127081610105e-01 6.808052552961978421e-01 7.223537068185755805e-01
-1.289062500000000000e-01 2.798461914062500000e-02 -4.055175781250000000e-01 -1.480869208349844257e-01 6.851266685874396467e-01 7.132122488207067734e-01
-1.269531250000000000e-01 2.798461914062500000e-02 -4.055175781250000000e-01 -2.049292722218066243e-01 6.760855840992761046e-01 7.077515640108337225e-01
-1.248168945312500000e-01 2.790832519531250000e-02 -4.045410156250000000e-01 -2.452238734773457829e-01 6.684632895825767251e-01 7.021553121334388470e-01
-1.226196289062500000e-01 2.783203125000000000e-02 -4.035644531250000000e-01 -3.149592743119923877e-01 6.480904542787369049e-01 6.933825917901628166e-01
-1.204223632812500000e-01 2.777099609375000000e-02 -4.023437500000000000e-01 -3.774701413334829447e-01 6.437590966361806943e-01 6.656504472317649190e-01
-1.179199218750000000e-01 2.763366699218750000e-02 -4.003906250000000000e-01 -5.315892304477773944e-01 5.389097518655369123e-01 6.534440828534339163e-01
-1.151733398437500000e-01 2.742004394531250000e-02 -3.974609375000000000e-01 6.263803332229088694e-01 -4.818292987891595325e-01 -6.127709237389650232e-01
-1.107177734375000000e-01 2.679443359375000000e-02 -3.884277343750000000e-01 7.538717836462928146e-01 -2.968278869366066663e-01 -5.861489054486973549e-01
-1.077880859375000000e-01 2.651977539062500000e-02 -3.842773437500000000e-01 -4.539312486853812056e-01 3.600621285880784561e-01 8.150470446689274118e-01
-1.057128906250000000e-01 2.645874023437500000e-02 -3.833007812500000000e-01 -2.174112530054609360e-01 4.007293234074831290e-01 8.900271661179653959e-01
-1.036376953125000000e-01 2.638244628906250000e-02 -3.823242187500000000e-01 -6.678249822621165621e-02 4.251803088257629648e-01 9.026415694601566120e-01
-1.021118164062500000e-01 2.645874023437500000e-02 -3.833007812500000000e-01 9.325879260120405190e-02 4.052475512804908364e-01 9.094378592205910605e-01
-1.003417968750000000e-01 2.645874023437500000e-02 -3.833007812500000000e-01 2.872877959137816184e-01 3.947107237104970912e-01 8.727365965209302745e-01
-9.875488281250000000e-02 2.651977539062500000e-02 -3.842773437500000000e-01 4.403917788963280788e-01 3.479150549336619269e-01 8.276534272453868191e-01
-9.722900390625000000e-02 2.659606933593750000e-02 -3.854980468750000000e-01 5.872607961144002964e-01 2.872763865076426448e-01 7.567014174046406971e-01
-9.564208984375000000e-02 2.665710449218750000e-02 -3.864746093750000000e-01 6.990917257284959829e-01 1.931612821196123375e-01 6.884471498291360181e-01
-9.429931640625000000e-02 2.679443359375000000e-02 -3.884277343750000000e-01 7.637811259726327018e-01 1.075098494933239834e-01 6.364589726525191615e-01
-9.295654296875000000e-02 2.693176269531250000e-02 -3.903808593750000000e-01 7.905223417679663189e-01 4.617891552944775047e-02 6.106897206652613930e-01
-9.161376953125000000e-02 2.708435058593750000e-02 -3.923339843750000000e-01 7.671133505766810634e-01 -1.426103728939619782e-03 6.415099949300652193e-01
-9.020996093750000000e-02 2.722167968750000000e-02 -3.945312500000000000e-01 7.156850769260290068e-01 -5.333977819778661783e-02 6.963833274333861567e-01
-8.862304687500000000e-02 2.728271484375000000e-02 -3.955078125000000000e-01 6.537916915486698954e-01 -7.595940776749415813e-02 7.528523045282787818e-01
-8.715820312500000000e-02 2.742004394531250000e-02 -3.974609375000000000e-01 5.506210513666920381e-01 -5.661163440985694795e-02 8.328334651305047132e-01
-8.551025390625000000e-02 2.749633789062500000e-02 -3.984375000000000000e-01 5.096172335063837711e-01 -5.092742865534923696e-02 8.588927012868687871e-01
-8.367919921875000000e-02 2.749633789062500000e-02 -3.984375000000000000e-01 4.479754876553256882e-01 6.491279680429733363e-03 8.940222736308550688e-01
-8.197021484375000000e-02 2.755737304687500000e-02 -3.994140625000000000e-01 3.933535793436643280e-01 1.758411635642671833e-02 9.192191036251864400e-01
-8.032226562500000000e-02 2.763366699218750000e-02 -4.003906250000000000e-01 3.557859668925547059e-01 4.072887697392039985e-02 9.336795512073579051e-01
-7.861328125000000000e-02 2.769470214843750000e-02 -4.013671875000000000e-01 3.238520604131028269e-01 8.474789585491397659e-02 9.423044291068319867e-01
-7.678222656250000000e-02 2.769470214843750000e-02 -4.013671875000000000e-01 2.853363550566817564e-01 1.333303998455309114e-01 9.491080912941359804e-01
-7.507324218750000000e-02 2.777099609375000000e-02 -4.023437500000000000e-01 2.231334055209925893e-01 1.204995345262699358e-01 9.673114004908431873e-01
-7.318115234375000000e-02 2.777099609375000000e-02 -4.023437500000000000e-01 1.219076853758488399e-01 1.399519727812823522e-01 9.826250360951170881e-01
-7.128906250000000000e-02 2.777099609375000000e-02 -4.023437500000000000e-01 -1.496939465329901603e-02 1.756882692765285026e-01 9.843320320208683860e-01
-6.939697265625000000e-02 2.777099609375000000e-02 -4.023437500000000000e-01 -1.386126891598801758e-01 1.468803117577761330e-01 9.793940455311155313e-01
-6.750488281250000000e-02 2.777099609375000000e-02 -4.023437500000000000e-01 -3.058200077347291712e-01 1.390734619525284266e-01 9.418772186700711258e-01
-6.542968750000000000e-02 2.769470214843750000e-02 -4.013671875000000000e-01 -4.002644255047790867e-01 1.365999438717797609e-01 9.061615998317053000e-01
-6.323242187500000000e-02 2.755737304687500000e-02 -3.994140625000000000e-01 -5.157618950504461175e-01 1.329127050177668912e-01 8.463591911587139416e-01
-6.121826171875000000e-02 2.749633789062500000e-02 -3.984375000000000000e-01 -5.579665220004346171e-01 1.286135055796844284e-01 8.198365242591005853e-01
-5.905151367187500000e-02 2.735900878906250000e-02 -3.964843750000000000e-01 -5.990231558008961565e-01 9.683618818584457943e-02 7.948547109201599126e-01
-5.703735351562500000e-02 2.728271484375000000e-02 -3.955078125000000000e-01 -6.376308575007949564e-01 8.839699792137657719e-02 7.652534614892566589e-01
-5.490112304687500000e-02 2.714538574218750000e-02 -3.933105468750000000e-01 -6.521284959564445094e-01 1.168343653265526971e-01 7.490515041306087252e-01
-5.279541015625000000e-02 2.700805664062500000e-02 -3.913574218750000000e-01 -6.575417840148867210e-01 1.821122292608098048e-01 7.310772450488242091e-01
-5.068969726562500000e-02 2.687072753906250000e-02 -3.894042968750000000e-01 -5.576326220822959145e-01 2.952381255996929799e-01 7.758094533981930718e-01
-4.861450195312500000e-02 2.673339843750000000e-02 -3.874511718750000000e-01 -4.568766689345657994e-01 3.813609972225394662e-01 8.036339335671965900e-01
