9.956359863281250000e-03 -8.239746093750000000e-02 -2.910156250000000000e-01 3.138186790723091479e-01 -3.798530026944921811e-01 8.701893661780113476e-01
1.136016845703125000e-02 -8.270263671875000000e-02 -2.919921875000000000e-01 3.318047241550132753e-01 -4.070348606807829839e-01 8.510160087912512772e-01
1.273345947265625000e-02 -8.270263671875000000e-02 -2.919921875000000000e-01 3.669441633697102523e-01 -3.969295085207525386e-01 8.413078783860145071e-01
1.415252685546875000e-02 -8.300781250000000000e-02 -2.929687500000000000e-01 3.944886618670655487e-01 -4.183796734065526324e-01 8.181302735741774468e-01
1.558685302734375000e-02 -8.325195312500000000e-02 -2.939453125000000000e-01 4.440543613973648163e-01 -4.410632473160643330e-01 7.799223910050196995e-01
1.707458496093750000e-02 -8.386230468750000000e-02 -2.961425781250000000e-01 4.988116028575561023e-01 -5.023761041279504180e-01 7.062614493626976353e-01
1.853942871093750000e-02 -8.410644531250000000e-02 -2.971191406250000000e-01 5.590781838410227023e-01 -4.924472429545456720e-01 6.670287079725208956e-01
2.006530761718750000e-02 -8.471679687500000000e-02 -2.990722656250000000e-01 6.805399783529948454e-01 -2.810909603485510777e-01 6.766485127993959736e-01
2.160644531250000000e-02 -8.526611328125000000e-02 -3.010253906250000000e-01 -6.150340676411638619e-01 6.233808322856637663e-02 -7.860324796216453525e-01
2.317810058593750000e-02 -8.581542968750000000e-02 -3.029785156250000000e-01 5.577733663467852043e-01 7.489550215807940295e-03 8.299595040914584665e-01
2.459716796875000000e-02 -8.581542968750000000e-02 -3.029785156250000000e-01 5.039579065455611628e-01 5.833313369782302388e-02 8.617561568931243476e-01
2.610778808593750000e-02 -8.612060546875000000e-02 -3.039550781250000000e-01 4.608637335154953107e-01 1.263588768337230994e-01 8.784293104032211419e-01
2.763366699218750000e-02 -8.642578125000000000e-02 -3.051757812500000000e-01 4.772089845417861187e-01 1.955626658437311927e-01 8.567536570103978510e-01
2.915954589843750000e-02 -8.666992187500000000e-02 -3.061523437500000000e-01 3.987265443306632906e-01 3.105246265961973395e-01 8.628972123743474665e-01
3.059387207031250000e-02 -8.666992187500000000e-02 -3.061523437500000000e-01 3.484477609400143949e-01 3.774994612709991482e-01 8.579500653511228370e-01
3.213500976562500000e-02 -8.697509765625000000e-02 -3.071289062500000000e-01 2.241687257342759587e-01 4.683346311679072449e-01 8.546408928032236396e-01
3.356933593750000000e-02 -8.697509765625000000e-02 -3.071289062500000000e-01 1.524090633298988140e-01 5.240339801377734696e-01 8.379497986609142357e-01
3.503417968750000000e-02 -8.697509765625000000e-02 -3.071289062500000000e-01 -1.107788346323806267e-01 -5.459247600310014326e-01 -8.304782996458037747e-01
3.646850585937500000e-02 -8.697509765625000000e-02 -3.071289062500000000e-01 -7.443325718800863910e-02 -5.661359560488016252e-01 -8.209444375188207355e-01
-4.544067382812500000e-02 -8.782958984375000000e-02 -3.051757812500000000e-01 -8.404408804546403822e-03 -5.558101867761172654e-01 -8.312667455086509838e-01
-4.400634765625000000e-02 -8.782958984375000000e-02 -3.051757812500000000e-01 -2.737591533611215266e-03 -5.491075970444589949e-01 -8.357471821434129255e-01
-4.257202148437500000e-02 -8.782958984375000000e-02 -3.051757812500000000e-01 -1.363725916899246465e-02 5.353707333685560066e-01 8.445070769477140971e-01
-4.113769531250000000e-02 -8.782958984375000000e-02 -3.051757812500000000e-01 -2.375004683437339364e-02 5.364655986602439031e-01 8.435879306447380266e-01
-3.970336914062500000e-02 -8.782958984375000000e-02 -3.051757812500000000e-01 -1.040664502288887183e-01 5.253794239313136494e-01 8.444800973654496001e-01
-3.826904296875000000e-02 -8.782958984375000000e-02 -3.051757812500000000e-01 -1.654331687437700926e-01 5.171015583311109332e-01 8.397844039102727587e-01
-3.683471679687500000e-02 -8.782958984375000000e-02 -3.051757812500000000e-01 -2.927291143911401883e-01 4.575330217684617784e-01 8.396268216173177201e-01
-3.527832031250000000e-02 -8.752441406250000000e-02 -3.039550781250000000e-01 -3.956554672739873713e-01 3.485047058425053135e-01 8.497065500640981206e-01
-3.387451171875000000e-02 -8.752441406250000000e-02 -3.039550781250000000e-01 -3.996214513346404429e-01 3.130902343004150490e-01 8.615551060837065567e-01
-3.231811523437500000e-02 -8.728027343750000000e-02 -3.029785156250000000e-01 -5.248102071488592868e-01 1.602227059450322122e-01 8.360041453079184448e-01
-3.080749511718750000e-02 -8.697509765625000000e-02 -3.020019531250000000e-01 -5.836807073678939028e-01 9.094854739904748020e-03 8.119323342888710160e-01
-2.919006347656250000e-02 -8.636474609375000000e-02 -3.000488281250000000e-01 -6.294579816265007954e-01 -2.006980315191990161e-01 7.506683352260239417e-01
-2.760314941406250000e-02 -8.581542968750000000e-02 -2.980957031250000000e-01 -5.545065435212290783e-01 -3.757931495815167722e-01 7.424971393343835491e-01
-2.610778808593750000e-02 -8.551025390625000000e-02 -2.971191406250000000e-01 -4.725875901865148609e-01 -4.260726768980174217e-01 7.714421842255324568e-01
-2.462768554687500000e-02 -8.526611328125000000e-02 -2.961425781250000000e-01 -4.519618022271242319e-01 -4.413778895692198057e-01 7.751877759143467328e-01
-2.316284179687500000e-02 -8.496093750000000000e-02 -2.949218750000000000e-01 -4.542254120974147935e-01 -4.522249544899763496e-01 7.675753158755644900e-01
-2.169799804687500000e-02 -8.465576171875000000e-02 -2.939453125000000000e-01 -4.184236498777560431e-01 -4.534620755469770392e-01 7.869522191744584561e-01
-2.024841308593750000e-02 -8.435058593750000000e-02 -2.929687500000000000e-01 -3.788772204485674755e-01 -4.374263312510897617e-01 8.155429213434320923e-01
-1.881408691406250000e-02 -8.410644531250000000e-02 -2.919921875000000000e-01 -3.569280778573682422e-01 -4.200276214655805918e-01 8.343735041592652557e-01
-1.744079589843750000e-02 -8.410644531250000000e-02 -2.919921875000000000e-01 -3.574545289959434324e-01 -4.135119811563208181e-01 8.373972182545527110e-01
-1.600646972656250000e-02 -8.380126953125000000e-02 -2.910156250000000000e-01 -3.433681005224654692e-01 -4.036627243983985092e-01 8.480299242803031046e-01
-1.459503173828125000e-02 -8.349609375000000000e-02 -2.900390625000000000e-01 -3.442362785896390664e-01 -3.525613145063378195e-01 8.701734907570556343e-01
-1.318359375000000000e-02 -8.319091796875000000e-02 -2.890625000000000000e-01 -3.155584243344390361e-01 -3.132198547279500533e-01 8.957210522454901458e-01
-1.182556152343750000e-02 -8.319091796875000000e-02 -2.890625000000000000e-01 -2.685595466315728319e-01 -2.823681959991390378e-01 9.209473230327757109e-01
-1.043701171875000000e-02 -8.294677734375000000e-02 -2.880859375000000000e-01 -2.046565139753842022e-01 -2.103467297777659728e-01 9.559654620116998514e-01
-9.078979492187500000e-03 -8.294677734375000000e-02 -2.880859375000000000e-01 -1.364453421051186055e-01 -1.777772753638151570e-01 9.745654975331495828e-01
-7.732391357421875000e-03 -8.294677734375000000e-02 -2.880859375000000000e-01 -7.190016447365524255e-02 -1.563333385586938018e-01 9.850838815064197895e-01
-6.378173828125000000e-03 -8.294677734375000000e-02 -2.880859375000000000e-01 -3.735778138372364970e-02 -1.504649405114678318e-01 9.879092558767562648e-01
-5.023956298828125000e-03 -8.294677734375000000e-02 -2.880859375000000000e-01 -1.635440886078880132e-03 -1.453217166632671531e-01 9.893831027459227823e-01
-3.671646118164062500e-03 -8.294677734375000000e-02 -2.880859375000000000e-01 2.974542138512068987e-02 -1.473394725351986900e-01 9.886386042127178753e-01
-2.319335937500000000e-03 -8.294677734375000000e-02 -2.880859375000000000e-01 7.393439365257807594e-02 -1.596156883459863562e-01 9.844066931248803831e-01
-9.670257568359375000e-04 -8.294677734375000000e-02 -2.880859375000000000e-01 1.123540856924127723e-01 -1.904380545057520746e-01 9.752486384631799954e-01
3.859996795654296875e-04 -8.294677734375000000e-02 -2.880859375000000000e-01 1.896049480295935175e-01 -2.353781369695704395e-01 9.532298234525761194e-01
1.744270324707031250e-03 -8.319091796875000000e-02 -2.890625000000000000e-01 2.467289182049053342e-01 -2.985754979198070314e-01 9.219422503407556091e-01
3.101348876953125000e-03 -8.319091796875000000e-02 -2.890625000000000000e-01 2.602662591525081726e-01 -3.219107027219322292e-01 9.102938942011152834e-01
4.474639892578125000e-03 -8.349609375000000000e-02 -2.900390625000000000e-01 2.765888600025180333e-01 -3.678435156455432398e-01 8.878005127955460596e-01
5.836486816406250000e-03 -8.349609375000000000e-02 -2.900390625000000000e-01 2.547351278233133121e-01 -3.750027430163064834e-01 8.913377347465359923e-01
7.225036621093750000e-03 -8.380126953125000000e-02 -2.910156250000000000e-01 2.738221200521354093e-01 -4.381054460011826190e-01 8.562038686868091997e-01
8.590698242187500000e-03 -8.380126953125000000e-02 -2.910156250000000000e-01 2.920428180382489969e-01 -4.389408783524949009e-01 8.497304853560441185e-01
9.994506835937500000e-03 -8.410644531250000000e-02 -2.919921875000000000e-01 3.045650985443629777e-01 -4.572705385248103660e-01 8.355499717825931594e-01
1.140594482421875000e-02 -8.435058593750000000e-02 -2.929687500000000000e-01 3.281518856664559780e-01 -4.573502124038174022e-01 8.265271460440560825e-01
1.277923583984375000e-02 -8.435058593750000000e-02 -2.929687500000000000e-01 3.596768208526083255e-01 -4.447706208926314186e-01 8.202509855721866749e-01
1.420593261718750000e-02 -8.465576171875000000e-02 -2.939453125000000000e-01 4.386055168915946600e-01 -4.592231454685223313e-01 7.724890311313511448e-01
1.564025878906250000e-02 -8.496093750000000000e-02 -2.949218750000000000e-01 4.656616956707723132e-01 -4.747491378109383597e-01 7.468416440804513945e-01
1.713562011718750000e-02 -8.551025390625000000e-02 -2.971191406250000000e-01 5.184926507569189713e-01 -4.289921800595372092e-01 7.396830946823303998e-01
1.860046386718750000e-02 -8.581542968750000000e-02 -2.980957031250000000e-01 5.799467118194219228e-01 -3.378665616425431395e-01 7.412880667956863734e-01
2.012634277343750000e-02 -8.636474609375000000e-02 -3.000488281250000000e-01 -6.337515470425593156e-01 8.687359953823087233e-02 -7.686429303157826798e-01
2.160644531250000000e-02 -8.666992187500000000e-02 -3.010253906250000000e-01 5.902726974163614582e-01 8.349451394514244978e-03 8.071607208891071750e-01
2.317810058593750000e-02 -8.728027343750000000e-02 -3.029785156250000000e-01 4.974008113309951740e-01 1.074835171964890479e-01 8.608366432827657677e-01
2.459716796875000000e-02 -8.728027343750000000e-02 -3.029785156250000000e-01 4.762368329791967225e-01 1.375151510571021585e-01 8.684975890258342934e-01
2.610778808593750000e-02 -8.752441406250000000e-02 -3.039550781250000000e-01 4.282637936783927901e-01 2.167834788020389369e-01 8.772656646322577467e-01
2.763366699218750000e-02 -8.782958984375000000e-02 -3.051757812500000000e-01 3.954242826470580896e-01 3.024374671747319110e-01 8.672780494985401489e-01
2.906799316406250000e-02 -8.782958984375000000e-02 -3.051757812500000000e-01 3.793756459715331708e-01 3.700709110299678639e-01 8.480104009109389329e-01
3.059387207031250000e-02 -8.813476562500000000e-02 -3.061523437500000000e-01 2.582233063695977271e-01 4.779751597763970405e-01 8.395596885774595508e-01
3.204345703125000000e-02 -8.813476562500000000e-02 -3.061523437500000000e-01 1.532109489774952371e-01 5.501974244420768656e-01 8.208588180988983796e-01
3.347778320312500000e-02 -8.813476562500000000e-02 -3.061523437500000000e-01 9.167989424630861028e-02 6.017024458678811305e-01 7.934412162394863799e-01
3.491210937500000000e-02 -8.813476562500000000e-02 -3.061523437500000000e-01 -6.474493707931239239e-02 -6.154473544360821169e-01 -7.855142564207369116e-01
3.634643554687500000e-02 -8.813476562500000000e-02 -3.061523437500000000e-01 -3.454599019633623064e-02 -6.157237627092914112e-01 -7.872044350716445038e-01
-4.544067382812500000e-02 -8.929443359375000000e-02 -3.051757812500000000e-01 -9.108658502363500137e-03 -5.625586083072380283e-01 -8.267072302573090781e-01
-4.400634765625000000e-02 -8.929443359375000000e-02 -3.051757812500000000e-01 -1.379056138259060482e-02 -5.587659628503440779e-01 -8.292107206112810935e-01
-4.257202148437500000e-02 -8.929443359375000000e-02 -3.051757812500000000e-01 -3.110644951600198549e-02 5.364815090387398122e-01 8.433385911115564015e-01
-4.113769531250000000e-02 -8.929443359375000000e-02 -3.051757812500000000e-01 -3.137381249239173248e-02 5.341958202842451708e-01 8.447783789139815536e-01
-3.970336914062500000e-02 -8.929443359375000000e-02 -3.051757812500000000e-01 -6.690779705050485526e-02 5.459870416505320234e-01 8.351176546113420196e-01
-3.814697265625000000e-02 -8.898925781250000000e-02 -3.039550781250000000e-01 -1.646682961363857001e-01 5.204049020603782605e-01 8.378920516146859399e-01
-3.671264648437500000e-02 -8.898925781250000000e-02 -3.039550781250000000e-01 -2.509392859458287051e-01 4.787228758230813175e-01 8.413405273328251610e-01
-3.527832031250000000e-02 -8.898925781250000000e-02 -3.039550781250000000e-01 -3.243975648945194301e-01 4.084755882264044513e-01 8.531787114746820500e-01
-3.375244140625000000e-02 -8.868408203125000000e-02 -3.029785156250000000e-01 -3.403234771177515161e-01 3.088077760238765457e-01 8.881540904537176262e-01
-3.231811523437500000e-02 -8.868408203125000000e-02 -3.029785156250000000e-01 -4.038218485205816166e-01 2.320194714318755402e-01 8.849264825588017969e-01
-3.080749511718750000e-02 -8.837890625000000000e-02 -3.020019531250000000e-01 -4.915917811717478991e-01 1.180174284718512462e-01 8.627916360635862203e-01
-2.919006347656250000e-02 -8.782958984375000000e-02 -3.000488281250000000e-01 -5.824559762688377162e-01 -1.265312178752868721e-01 8.029538508605036373e-01
-2.769470214843750000e-02 -8.752441406250000000e-02 -2.990722656250000000e-01 -5.224404395635129372e-01 -2.532398181158899142e-01 8.142024205498988865e-01
-2.619934082031250000e-02 -8.721923828125000000e-02 -2.980957031250000000e-01 -4.670729819095021385e-01 -3.712487394664424345e-01 8.025068242792353645e-01
-2.471923828125000000e-02 -8.691406250000000000e-02 -2.971191406250000000e-01 -4.652016114067573649e-01 -3.944909335648725812e-01 7.924420256900006621e-01
-2.323913574218750000e-02 -8.660888671875000000e-02 -2.961425781250000000e-01 -4.552173211202129588e-01 -4.202893600152772247e-01 7.849420643653172158e-01
-2.177429199218750000e-02 -8.636474609375000000e-02 -2.949218750000000000e-01 -4.235677167564700363e-01 -4.513076412784418623e-01 7.854373318383840452e-01
-2.032470703125000000e-02 -8.605957031250000000e-02 -2.939453125000000000e-01 -3.867479213618033596e-01 -4.717486216834464452e-01 7.923883411952078459e-01
-1.887512207031250000e-02 -8.575439453125000000e-02 -2.929687500000000000e-01 -3.580331400630051286e-01 -4.567117486277955662e-01 8.143872845777773151e-01
-1.750183105468750000e-02 -8.575439453125000000e-02 -2.929687500000000000e-01 -3.605585704526904078e-01 -4.514539599776470347e-01 8.162026949806115983e-01
-1.606750488281250000e-02 -8.544921875000000000e-02 -2.919921875000000000e-01 -3.434692705279438485e-01 -4.607707135856017322e-01 8.183637392411869937e-01
-1.464843750000000000e-02 -8.514404296875000000e-02 -2.910156250000000000e-01 -3.442278914885513741e-01 -4.506110456756616811e-01 8.236849180581327090e-01
-1.322937011718750000e-02 -8.483886718750000000e-02 -2.900390625000000000e-01 -3.456585838078066186e-01 -4.095659862679737473e-01 8.442605322602279028e-01
-1.187133789062500000e-02 -8.483886718750000000e-02 -2.900390625000000000e-01 -2.946539833585338219e-01 -4.205209161176566846e-01 8.581032508961352612e-01
-1.047515869140625000e-02 -8.459472656250000000e-02 -2.890625000000000000e-01 -2.309005484853815238e-01 -3.711616209771099739e-01 8.994020167993811432e-01
-9.117126464843750000e-03 -8.459472656250000000e-02 -2.890625000000000000e-01 -1.720811569622154313e-01 -3.555985465553542224e-01 9.186608455280245167e-01
-7.732391357421875000e-03 -8.428955078125000000e-02 -2.880859375000000000e-01 -1.267479657962293782e-01 -3.372201802988207819e-01 9.328544919577482775e-01
-6.378173828125000000e-03 -8.428955078125000000e-02 -2.880859375000000000e-01 -8.583752171565926792e-02 -3.451450650351274851e-01 9.346158590285160717e-01
-5.023956298828125000e-03 -8.428955078125000000e-02 -2.880859375000000000e-01 -7.955324334883327395e-03 -2.793897505809039838e-01 9.601448224539186338e-01
-3.671646118164062500e-03 -8.428955078125000000e-02 -2.880859375000000000e-01 7.656619038892940876e-02 -3.207257754514241666e-01 9.440723465129189362e-01
-2.319335937500000000e-03 -8.428955078125000000e-02 -2.880859375000000000e-01 1.133941641519713162e-01 -3.508864464335456623e-01 9.295270115739049377e-01
-9.703636169433593750e-04 -8.459472656250000000e-02 -2.890625000000000000e-01 1.593075240896818234e-01 -3.581964644815624488e-01 9.199545671397714175e-01
3.871917724609375000e-04 -8.459472656250000000e-02 -2.890625000000000000e-01 2.176269546314832382e-01 -3.604381056993343768e-01 9.070407270777326447e-01
1.744270324707031250e-03 -8.459472656250000000e-02 -2.890625000000000000e-01 2.476224051848409380e-01 -4.203828021851039320e-01 8.729040291334863033e-01
3.112792968750000000e-03 -8.483886718750000000e-02 -2.900390625000000000e-01 2.867977381764722500e-01 -4.361841377300748057e-01 8.529305102817760220e-01
4.489898681640625000e-03 -8.514404296875000000e-02 -2.910156250000000000e-01 2.686566280270122897e-01 -4.442043688688577796e-01 8.546964928528577587e-01
5.855560302734375000e-03 -8.514404296875000000e-02 -2.910156250000000000e-01 2.699818541124706650e-01 -4.648942242080651432e-01 8.431981728798834119e-01
7.247924804687500000e-03 -8.544921875000000000e-02 -2.919921875000000000e-01 2.839673588352994993e-01 -4.630621298716028345e-01 8.396046706604716192e-01
8.621215820312500000e-03 -8.544921875000000000e-02 -2.919921875000000000e-01 2.780868468134594651e-01 -4.738113678037622067e-01 8.355659718832950666e-01
1.002502441406250000e-02 -8.575439453125000000e-02 -2.929687500000000000e-01 3.119754897618595146e-01 -4.830607485725270100e-01 8.181220000564694006e-01
1.144409179687500000e-02 -8.605957031250000000e-02 -2.939453125000000000e-01 3.320830616452970507e-01 -4.765779888914274398e-01 8.139989316163064315e-01
1.282501220703125000e-02 -8.605957031250000000e-02 -2.939453125000000000e-01 3.812727887538395755e-01 -4.671283918601123464e-01 7.977606947412585470e-01
1.425170898437500000e-02 -8.636474609375000000e-02 -2.949218750000000000e-01 4.379011617480668139e-01 -4.649442718402148067e-01 7.694604581280741762e-01
1.568603515625000000e-02 -8.660888671875000000e-02 -2.961425781250000000e-01 4.843973704863628882e-01 -4.230258001103764376e-01 7.657730472580456249e-01
1.719665527343750000e-02 -8.721923828125000000e-02 -2.980957031250000000e-01 5.342935201371309395e-01 -3.158859203597136900e-01 7.840577272484277049e-01
1.866149902343750000e-02 -8.752441406250000000e-02 -2.990722656250000000e-01 5.536883794925816504e-01 -1.859030536763449648e-01 8.117076031728968077e-01
2.012634277343750000e-02 -8.782958984375000000e-02 -3.000488281250000000e-01 5.792821568775698982e-01 -1.073840828250198082e-01 8.080227976233714804e-01
2.160644531250000000e-02 -8.807373046875000000e-02 -3.010253906250000000e-01 5.738092194203668894e-01 1.783968931646903039e-02 8.187946782883247510e-01
2.310180664062500000e-02 -8.837890625000000000e-02 -3.020019531250000000e-01 4.683670395220044247e-01 1.564783100179074626e-01 8.695670501941370478e-01
2.459716796875000000e-02 -8.868408203125000000e-02 -3.029785156250000000e-01 4.157698330507223483e-01 2.230610271594079264e-01 8.816911160307584483e-01
2.610778808593750000e-02 -8.898925781250000000e-02 -3.039550781250000000e-01 3.490807261672800310e-01 3.080960096631656375e-01 8.849968900782414494e-01
2.754211425781250000e-02 -8.898925781250000000e-02 -3.039550781250000000e-01 3.666196765177847094e-01 3.605521112393303973e-01 8.576667114158369465e-01
2.897644042968750000e-02 -8.898925781250000000e-02 -3.039550781250000000e-01 2.551009782478303456e-01 4.779220595525520698e-01 8.405438691050257649e-01
3.050231933593750000e-02 -8.929443359375000000e-02 -3.051757812500000000e-01 1.647639668770291277e-01 5.573130897195840427e-01 8.137904860872704482e-01
3.192138671875000000e-02 -8.929443359375000000e-02 -3.051757812500000000e-01 9.444861779723079387e-02 6.072176394305466296e-01 7.889018931150990621e-01
3.335571289062500000e-02 -8.929443359375000000e-02 -3.051757812500000000e-01 8.027662783726638440e-02 6.419485314916844043e-01 7.625337670810040658e-01
3.479003906250000000e-02 -8.929443359375000000e-02 -3.051757812500000000e-01 -3.694163319257182110e-02 -6.520773539101728522e-01 -7.572519001326920574e-01
3.622436523437500000e-02 -8.929443359375000000e-02 -3.051757812500000000e-01 -1.245030910161943477e-02 -6.600677254474855982e-01 -7.511029141375080709e-01
-4.528808593750000000e-02 -9.039306640625000000e-02 -3.039550781250000000e-01 -3.135677799896189472e-02 -5.857573439469455634e-01 -8.098796740786520232e-01
-4.385375976562500000e-02 -9.039306640625000000e-02 -3.039550781250000000e-01 -2.824242017567833371e-02 -5.869202025328441596e-01 -8.091520509529873673e-01
-4.241943359375000000e-02 -9.039306640625000000e-02 -3.039550781250000000e-01 -2.030830484172537961e-02 5.779796749213206297e-01 8.157984237128067528e-01
-4.101562500000000000e-02 -9.039306640625000000e-02 -3.039550781250000000e-01 -3.486943048295693820e-02 5.737799671234502519e-01 8.182668709813482044e-01
-3.958129882812500000e-02 -9.039306640625000000e-02 -3.039550781250000000e-01 -7.020702555924160371e-02 5.658717125239767221e-01 8.214987392122437004e-01
-3.814697265625000000e-02 -9.039306640625000000e-02 -3.039550781250000000e-01 -1.310322923183726840e-01 5.480246752994470949e-01 8.261352756254438656e-01
-3.659057617187500000e-02 -9.008789062500000000e-02 -3.029785156250000000e-01 -2.234937897873137125e-01 4.948058927757195691e-01 8.397723824947609383e-01
-3.518676757812500000e-02 -9.008789062500000000e-02 -3.029785156250000000e-01 -2.524799288939183484e-01 4.406983045638202534e-01 8.614167921861614063e-01
-3.375244140625000000e-02 -9.008789062500000000e-02 -3.029785156250000000e-01 -3.172190165854346655e-01 3.763993078468086395e-01 8.704571537812836324e-01
-3.222656250000000000e-02 -8.978271484375000000e-02 -3.020019531250000000e-01 -3.413934480141037064e-01 3.373785632641373988e-01 8.772834312255464173e-01
-3.080749511718750000e-02 -8.978271484375000000e-02 -3.020019531250000000e-01 -4.035967419844506132e-01 1.970592074527751647e-01 8.934636750409167272e-01
-2.929687500000000000e-02 -8.953857421875000000e-02 -3.010253906250000000e-01 -4.797088789104436146e-01 1.066898188969291478e-01 8.709171453348623082e-01
-2.778625488281250000e-02 -8.923339843750000000e-02 -3.000488281250000000e-01 -4.802941469184233148e-01 -1.120295296891312131e-01 8.699235121052517616e-01
-2.629089355468750000e-02 -8.892822265625000000e-02 -2.990722656250000000e-01 -4.470706362277702128e-01 -2.153563785286748411e-01 8.681874661902870827e-01
-2.479553222656250000e-02 -8.862304687500000000e-02 -2.980957031250000000e-01 -4.198830601619544800e-01 -2.866609867673996503e-01 8.611177006975139214e-01
-2.331542968750000000e-02 -8.831787109375000000e-02 -2.971191406250000000e-01 -4.296288072715689910e-01 -3.503761063884605065e-01 8.322593778591330649e-01
-2.185058593750000000e-02 -8.801269531250000000e-02 -2.961425781250000000e-01 -4.122869553254403518e-01 -4.166222363003690976e-01 8.102131686714043601e-01
-2.038574218750000000e-02 -8.770751953125000000e-02 -2.949218750000000000e-01 -3.857078126433579612e-01 -4.520901729060228247e-01 8.042660995141339697e-01
-1.893615722656250000e-02 -8.740234375000000000e-02 -2.939453125000000000e-01 -3.652701795729098033e-01 -4.743524578380088896e-01 8.009790519469371928e-01
-1.756286621093750000e-02 -8.740234375000000000e-02 -2.939453125000000000e-01 -3.649298174705868925e-01 -4.640718520325028962e-01 8.071329162362336218e-01
-1.611328125000000000e-02 -8.709716796875000000e-02 -2.929687500000000000e-01 -3.453328311895815794e-01 -4.728463800852365506e-01 8.106550046369145335e-01
-1.469421386718750000e-02 -8.685302734375000000e-02 -2.919921875000000000e-01 -3.424864721062965689e-01 -4.741987243043350730e-01 8.110724913916906864e-01
-1.327514648437500000e-02 -8.654785156250000000e-02 -2.910156250000000000e-01 -3.226151134287065236e-01 -4.657292808156211494e-01 8.240241049740881785e-01
-1.190948486328125000e-02 -8.654785156250000000e-02 -2.910156250000000000e-01 -2.863151535971017458e-01 -4.860715263503019856e-01 8.256864441736679883e-01
-1.050567626953125000e-02 -8.624267578125000000e-02 -2.900390625000000000e-01 -2.350090304782843642e-01 -4.949879708242349019e-01 8.365151907365240280e-01
-9.117126464843750000e-03 -8.593750000000000000e-02 -2.890625000000000000e-01 -1.928257277961820948e-01 -4.686171246101605847e-01 8.620998951525153942e-01
-7.759094238281250000e-03 -8.593750000000000000e-02 -2.890625000000000000e-01 -1.410682658123081634e-01 -4.716408622687753294e-01 8.704335939168904579e-01
-6.401062011718750000e-03 -8.593750000000000000e-02 -2.890625000000000000e-01 -7.594719695715158869e-02 -4.745812502515253661e-01 8.769291078439868103e-01
-5.043029785156250000e-03 -8.593750000000000000e-02 -2.890625000000000000e-01 -6.469205482356004918e-05 -4.594084011382476573e-01 8.882251498232511810e-01
-3.684997558593750000e-03 -8.593750000000000000e-02 -2.890625000000000000e-01 7.034859120065248272e-02 -4.592438908558260646e-01 8.855202563621487055e-01
-2.326965332031250000e-03 -8.593750000000000000e-02 -2.890625000000000000e-01 1.026459541901263151e-01 -4.580275938569917660e-01 8.829918070706958000e-01
-9.703636169433593750e-04 -8.593750000000000000e-02 -2.890625000000000000e-01 1.731266676588479325e-01 -4.573911463195540761e-01 8.722502486178074221e-01
3.886222839355468750e-04 -8.624267578125000000e-02 -2.900390625000000000e-01 2.363380623488363363e-01 -4.906854107787289032e-01 8.386728491695123466e-01
1.750946044921875000e-03 -8.624267578125000000e-02 -2.900390625000000000e-01 2.615443916494246679e-01 -4.863328332818769861e-01 8.337115247306794430e-01
3.124237060546875000e-03 -8.654785156250000000e-02 -2.910156250000000000e-01 2.713678124212690057e-01 -4.844079259394136749e-01 8.316901295968170960e-01
4.505157470703125000e-03 -8.685302734375000000e-02 -2.919921875000000000e-01 2.613670735226483188e-01 -5.001958916452601267e-01 8.255248771899063032e-01
5.878448486328125000e-03 -8.685302734375000000e-02 -2.919921875000000000e-01 2.598665389701575457e-01 -4.826658778355149559e-01 8.363629787938627880e-01
7.274627685546875000e-03 -8.709716796875000000e-02 -2.929687500000000000e-01 2.881080226956768131e-01 -4.773284784426111704e-01 8.301513662736748067e-01
8.651733398437500000e-03 -8.709716796875000000e-02 -2.929687500000000000e-01 2.822763687148490130e-01 -4.895900137747674075e-01 8.249979818624901817e-01
1.006317138671875000e-02 -8.740234375000000000e-02 -2.939453125000000000e-01 3.198982516280766686e-01 -4.894634028351670385e-01 8.112278877666365684e-01
1.148223876953125000e-02 -8.770751953125000000e-02 -2.949218750000000000e-01 3.353169389772592823e-01 -4.802713468470133917e-01 8.104949005593290456e-01
1.286315917968750000e-02 -8.770751953125000000e-02 -2.949218750000000000e-01 3.981337033892030086e-01 -4.775526516587106918e-01 7.832196493445068297e-01
1.429748535156250000e-02 -8.801269531250000000e-02 -2.961425781250000000e-01 4.411276483030455720e-01 -4.215550244593685436e-01 7.922737905898981081e-01
1.574707031250000000e-02 -8.831787109375000000e-02 -2.971191406250000000e-01 4.544958869922926525e-01 -3.732059925721501470e-01 8.087958801918598839e-01
1.719665527343750000e-02 -8.862304687500000000e-02 -2.980957031250000000e-01 4.760220647687463669e-01 -2.354501058290050519e-01 8.473288862764032370e-01
1.866149902343750000e-02 -8.892822265625000000e-02 -2.990722656250000000e-01 4.859717986737475681e-01 -1.447517872712847931e-01 8.619038989212028934e-01
2.012634277343750000e-02 -8.923339843750000000e-02 -3.000488281250000000e-01 5.156674027360281798e-01 -2.600121871438482168e-02 8.563942236965671473e-01
2.160644531250000000e-02 -8.953857421875000000e-02 -3.010253906250000000e-01 4.753715458610588418e-01 1.346025570312461006e-01 8.694274236681963641e-01
2.310180664062500000e-02 -8.978271484375000000e-02 -3.020019531250000000e-01 4.253114956594725160e-01 2.303994832791665948e-01 8.752292326954097534e-01
2.459716796875000000e-02 -9.008789062500000000e-02 -3.029785156250000000e-01 3.617888409794133286e-01 2.966398331755640827e-01 8.838063384680754364e-01
2.603149414062500000e-02 -9.008789062500000000e-02 -3.029785156250000000e-01 2.845516157470286966e-01 3.904867887878375465e-01 8.755286664398362895e-01
2.745056152343750000e-02 -9.008789062500000000e-02 -3.029785156250000000e-01 2.615544102959923012e-01 4.539799648204758120e-01 8.517578775663394719e-01
2.897644042968750000e-02 -9.039306640625000000e-02 -3.039550781250000000e-01 1.700195281841373751e-01 5.560345726803141986e-01 8.135839932178259293e-01
3.039550781250000000e-02 -9.039306640625000000e-02 -3.039550781250000000e-01 1.063280392066157098e-01 6.115404977168060752e-01 7.840360755288990902e-01
3.182983398437500000e-02 -9.039306640625000000e-02 -3.039550781250000000e-01 7.202574820709999048e-02 6.393033536259874472e-01 7.655739765938841535e-01
3.323364257812500000e-02 -9.039306640625000000e-02 -3.039550781250000000e-01 2.920111176405344386e-02 6.716320074745831814e-01 7.403092202636711860e-01
3.466796875000000000e-02 -9.039306640625000000e-02 -3.039550781250000000e-01 5.671908694700293629e-04 -6.751880417580616855e-01 -7.376454341764965283e-01
3.610229492187500000e-02 -9.039306640625000000e-02 -3.039550781250000000e-01 -7.203059600560252074e-04 -6.743967662887521142e-01 -7.383687986220691668e-01
-4.513549804687500000e-02 -9.155273437500000000e-02 -3.029785156250000000e-01 -2.656538496929275461e-02 -6.033150402619338326e-01 -7.970603757026029079e-01
-4.373168945312500000e-02 -9.155273437500000000e-02 -3.029785156250000000e-01 1.169079434415227700e-02 6.197003795149538252e-01 7.847514032842662912e-01
-4.229736328125000000e-02 -9.155273437500000000e-02 -3.029785156250000000e-01 -5.920768657071241899e-03 6.399352735824925809e-01 7.684060060432958972e-01
-4.086303710937500000e-02 -9.155273437500000000e-02 -3.029785156250000000e-01 -2.694275322402060746e-02 6.249226575187666333e-01 7.802216096522781585e-01
-3.945922851562500000e-02 -9.155273437500000000e-02 -3.029785156250000000e-01 -8.143793207110598675e-02 6.035326482819791671e-01 7.931684598354392657e-01
-3.802490234375000000e-02 -9.155273437500000000e-02 -3.029785156250000000e-01 -1.077605120692411989e-01 5.801328729104409110e-01 8.073620760273877428e-01
-3.659057617187500000e-02 -9.155273437500000000e-02 -3.029785156250000000e-01 -1.627918107726778751e-01 5.317995118640141960e-01 8.310764739339870921e-01
-3.506469726562500000e-02 -9.124755859375000000e-02 -3.020019531250000000e-01 -2.138951842594329356e-01 4.863810839979521572e-01 8.471613136112862152e-01
-3.363037109375000000e-02 -9.124755859375000000e-02 -3.020019531250000000e-01 -2.394969493031112451e-01 4.454507509576772772e-01 8.626788740578642534e-01
-3.222656250000000000e-02 -9.124755859375000000e-02 -3.020019531250000000e-01 -2.756282092632491021e-01 3.914941767831993102e-01 8.779301793441091073e-01
-3.070068359375000000e-02 -9.094238281250000000e-02 -3.010253906250000000e-01 -3.261863666025180408e-01 3.309037215764756290e-01 8.854971379341020077e-01
-2.929687500000000000e-02 -9.094238281250000000e-02 -3.010253906250000000e-01 -3.946016567604549996e-01 2.238049197281425928e-01 8.911794939221748812e-01
-2.778625488281250000e-02 -9.063720703125000000e-02 -3.000488281250000000e-01 -4.110601930329723097e-01 4.034618563859600909e-02 9.107149405868509850e-01
-2.629089355468750000e-02 -9.033203125000000000e-02 -2.990722656250000000e-01 -4.071029061616583955e-01 -9.516338343929120480e-02 9.084113353801340773e-01
-2.479553222656250000e-02 -9.002685546875000000e-02 -2.980957031250000000e-01 -3.862977587476065233e-01 -1.794627940202470906e-01 9.047470072617108672e-01
-2.339172363281250000e-02 -9.002685546875000000e-02 -2.980957031250000000e-01 -4.123367457872807451e-01 -2.119044063260423494e-01 8.860445421383525977e-01
-2.192687988281250000e-02 -8.972167968750000000e-02 -2.971191406250000000e-01 -3.960043997478879252e-01 -3.021104547706420784e-01 8.671273196587631071e-01
-2.046203613281250000e-02 -8.941650390625000000e-02 -2.961425781250000000e-01 -3.584661655561178217e-01 -3.756708497888583964e-01 8.546188745694835998e-01
-1.899719238281250000e-02 -8.911132812500000000e-02 -2.949218750000000000e-01 -3.572661212026060906e-01 -4.354331035978903919e-01 8.262922793612159644e-01
-1.762390136718750000e-02 -8.911132812500000000e-02 -2.949218750000000000e-01 -3.619003300301468773e-01 -4.461377043778666507e-01 8.185287410082299209e-01
-1.617431640625000000e-02 -8.880615234375000000e-02 -2.939453125000000000e-01 -3.458178744190648635e-01 -4.663830498923456913e-01 8.141847754075199894e-01
-1.474761962890625000e-02 -8.850097656250000000e-02 -2.929687500000000000e-01 -3.458196037586376281e-01 -4.797233364019504731e-01 8.063958842700028606e-01
-1.332092285156250000e-02 -8.819580078125000000e-02 -2.919921875000000000e-01 -3.150197737170843393e-01 -4.733970333015308785e-01 8.225921170474139732e-01
-1.195526123046875000e-02 -8.819580078125000000e-02 -2.919921875000000000e-01 -2.713842340716502433e-01 -4.975503012789802004e-01 8.238897348520248798e-01
-1.054382324218750000e-02 -8.789062500000000000e-02 -2.910156250000000000e-01 -2.313241748157967848e-01 -5.068465467835214788e-01 8.304189931350379750e-01
-9.178161621093750000e-03 -8.789062500000000000e-02 -2.910156250000000000e-01 -1.800687940969863399e-01 -5.316846565184765172e-01 8.275787910617856680e-01
-7.785797119140625000e-03 -8.758544921875000000e-02 -2.900390625000000000e-01 -1.524646140298820951e-01 -5.353316188163109723e-01 8.307674761112323614e-01
-6.420135498046875000e-03 -8.758544921875000000e-02 -2.900390625000000000e-01 -8.661898478378257660e-02 -5.309794492937643939e-01 8.429460100758040531e-01
-5.058288574218750000e-03 -8.758544921875000000e-02 -2.900390625000000000e-01 -1.023670127738354578e-02 -5.503057733180898303e-01 8.349004526287769901e-01
-3.698348999023437500e-03 -8.758544921875000000e-02 -2.900390625000000000e-01 6.612904437210864739e-02 -5.357691045651712392e-01 8.417709997878677353e-01
-2.334594726562500000e-03 -8.758544921875000000e-02 -2.900390625000000000e-01 1.245609487000684801e-01 -5.313987605009548032e-01 8.379140334169059567e-01
-9.765625000000000000e-04 -8.789062500000000000e-02 -2.910156250000000000e-01 1.684350344233132846e-01 -5.437642606094633679e-01 8.221618259580414367e-01
3.900527954101562500e-04 -8.789062500000000000e-02 -2.910156250000000000e-01 2.334934255773925271e-01 -5.189534003780531535e-01 8.222944657774310384e-01
1.763343811035156250e-03 -8.819580078125000000e-02 -2.919921875000000000e-01 2.393657847388722393e-01 -5.278995351241734246e-01 8.148779674969900411e-01
3.133773803710937500e-03 -8.819580078125000000e-02 -2.919921875000000000e-01 2.584873714304988801e-01 -5.067309498921168665e-01 8.224402855115892086e-01
4.520416259765625000e-03 -8.850097656250000000e-02 -2.929687500000000000e-01 2.506561567691462100e-01 -4.968343306392677405e-01 8.308592774784138157e-01
5.897521972656250000e-03 -8.850097656250000000e-02 -2.929687500000000000e-01 2.477376908495268759e-01 -4.902554429610457287e-01 8.356288872338084595e-01
7.297515869140625000e-03 -8.880615234375000000e-02 -2.939453125000000000e-01 2.948365358303361439e-01 -4.818701675446251942e-01 8.251500219778714618e-01
8.682250976562500000e-03 -8.880615234375000000e-02 -2.939453125000000000e-01 2.873985080249199520e-01 -4.995745358992166318e-01 8.172070610721203776e-01
1.009368896484375000e-02 -8.911132812500000000e-02 -2.949218750000000000e-01 3.157855977888756605e-01 -4.777476826794492260e-01 8.197783895197157111e-01
1.152038574218750000e-02 -8.941650390625000000e-02 -2.961425781250000000e-01 3.254870921406736173e-01 -4.464011820046611123e-01 8.335371242810065695e-01
1.290893554687500000e-02 -8.941650390625000000e-02 -2.961425781250000000e-01 3.782767849779680169e-01 -4.078207572580512807e-01 8.310167891782943572e-01
1.435089111328125000e-02 -8.972167968750000000e-02 -2.971191406250000000e-01 3.753977624714651684e-01 -3.198126795793446719e-01 8.699404404392847567e-01
1.579284667968750000e-02 -9.002685546875000000e-02 -2.980957031250000000e-01 3.856702405798006494e-01 -2.213973756402335125e-01 8.956794446623947969e-01
1.725769042968750000e-02 -9.033203125000000000e-02 -2.990722656250000000e-01 4.267092410337803288e-01 -1.327047074361522305e-01 8.945997340937791309e-01
1.866149902343750000e-02 -9.033203125000000000e-02 -2.990722656250000000e-01 4.159713817029254690e-01 -5.883541540300618600e-02 9.074724257510609071e-01
2.012634277343750000e-02 -9.063720703125000000e-02 -3.000488281250000000e-01 4.136662746881333841e-01 9.573661637670433100e-02 9.053809769762017901e-01
2.160644531250000000e-02 -9.094238281250000000e-02 -3.010253906250000000e-01 4.195183129132039612e-01 2.066070936269905900e-01 8.839218822913409435e-01
2.310180664062500000e-02 -9.124755859375000000e-02 -3.020019531250000000e-01 3.508177620806174346e-01 3.103959870507484453e-01 8.835050814972933431e-01
2.452087402343750000e-02 -9.124755859375000000e-02 -3.020019531250000000e-01 2.961741873184046692e-01 3.614242464616521655e-01 8.841116246469725715e-01
2.593994140625000000e-02 -9.124755859375000000e-02 -3.020019531250000000e-01 2.289615383676253113e-01 4.281891421311445067e-01 8.742028783465112252e-01
2.745056152343750000e-02 -9.155273437500000000e-02 -3.029785156250000000e-01 1.528551308117553909e-01 5.233482778607940755e-01 8.382970171989533315e-01
2.886962890625000000e-02 -9.155273437500000000e-02 -3.029785156250000000e-01 1.078193980513991596e-01 5.815871033508819288e-01 8.063072730787963494e-01
3.030395507812500000e-02 -9.155273437500000000e-02 -3.029785156250000000e-01 9.107413866798522162e-02 6.114339847440586340e-01 7.860368843545999518e-01
3.170776367187500000e-02 -9.155273437500000000e-02 -3.029785156250000000e-01 3.764970557319438638e-02 6.487727728415847439e-01 7.600502541869802453e-01
3.314208984375000000e-02 -9.155273437500000000e-02 -3.029785156250000000e-01 2.468682306610035793e-03 6.762472546337412460e-01 7.366705886676873094e-01
3.457641601562500000e-02 -9.155273437500000000e-02 -3.029785156250000000e-01 6.663958593166022151e-04 6.769110680070936636e-01 7.360645093509499137e-01
3.598022460937500000e-02 -9.155273437500000000e-02 -3.029785156250000000e-01 8.087284379568460135e-04 -6.753695580306836588e-01 -7.374790207482194715e-01
-4.498291015625000000e-02 -9.265136718750000000e-02 -3.020019531250000000e-01 8.954731491959884784e-03 6.200253966057298616e-01 7.845306369720779216e-01
-4.357910156250000000e-02 -9.265136718750000000e-02 -3.020019531250000000e-01 4.477787362626358195e-03 6.418845376606158171e-01 7.667882300430495235e-01
-4.214477539062500000e-02 -9.265136718750000000e-02 -3.020019531250000000e-01 -1.356170200426207824e-03 6.750637324971201503e-01 7.377581703169706628e-01
-4.074096679687500000e-02 -9.265136718750000000e-02 -3.020019531250000000e-01 -1.329014495973883728e-02 6.530285645411486595e-01 7.572166571994278783e-01
-3.930664062500000000e-02 -9.265136718750000000e-02 -3.020019531250000000e-01 5.795536176639048270e-02 -5.989436974948606496e-01 -7.986911939377516756e-01
-3.790283203125000000e-02 -9.265136718750000000e-02 -3.020019531250000000e-01 -1.105141147246794936e-01 5.970744852384828327e-01 7.945367766968507439e-01
-3.646850585937500000e-02 -9.265136718750000000e-02 -3.020019531250000000e-01 -1.458286298927811975e-01 5.524266565309138288e-01 8.207062811125975799e-01
-3.506469726562500000e-02 -9.265136718750000000e-02 -3.020019531250000000e-01 1.885707950593955018e-01 -5.186370064623145870e-01 -8.339404719633631835e-01
-3.353881835937500000e-02 -9.234619140625000000e-02 -3.010253906250000000e-01 -2.166586762959151480e-01 4.721532150485969748e-01 8.544766582563713131e-01
-3.210449218750000000e-02 -9.234619140625000000e-02 -3.010253906250000000e-01 -2.480846406231329293e-01 4.346057843919558517e-01 8.657781605353322973e-01
-3.070068359375000000e-02 -9.234619140625000000e-02 -3.010253906250000000e-01 -3.068897319509362731e-01 3.428189391351902371e-01 8.878591483975963872e-01
-2.919006347656250000e-02 -9.204101562500000000e-02 -3.000488281250000000e-01 -2.881237677310778400e-01 2.517562432820970031e-01 9.239066448710786528e-01
-2.778625488281250000e-02 -9.204101562500000000e-02 -3.000488281250000000e-01 -3.276921858312246694e-01 1.360701410080712437e-01 9.349346223513158582e-01
-2.629089355468750000e-02 -9.173583984375000000e-02 -2.990722656250000000e-01 -3.502206765560865742e-01 7.424767478386053512e-03 9.366377904721168157e-01
-2.488708496093750000e-02 -9.173583984375000000e-02 -2.990722656250000000e-01 -3.534941315214431556e-01 -6.414319715531624500e-02 9.332349914349520326e-01
-2.339172363281250000e-02 -9.143066406250000000e-02 -2.980957031250000000e-01 -3.480302402708705389e-01 -1.571290544581558091e-01 9.242215167924223707e-01
-2.192687988281250000e-02 -9.112548828125000000e-02 -2.971191406250000000e-01 -3.349169896871878049e-01 -2.666205845557900189e-01 9.037389412380107956e-01
-2.052307128906250000e-02 -9.112548828125000000e-02 -2.971191406250000000e-01 -3.424247702698486884e-01 -3.222923205934781765e-01 8.825377820762757564e-01
-1.907348632812500000e-02 -9.082031250000000000e-02 -2.961425781250000000e-01 -3.381934078548791134e-01 -3.727205906719316397e-01 8.641206976879272084e-01
-1.766967773437500000e-02 -9.082031250000000000e-02 -2.961425781250000000e-01 -3.358742961749917044e-01 -4.025667562038704461e-01 8.515447515946813484e-01
-1.623535156250000000e-02 -9.051513671875000000e-02 -2.949218750000000000e-01 -3.399447121970434749e-01 -4.498040301078959358e-01 8.259018871197500999e-01
-1.480102539062500000e-02 -9.020996093750000000e-02 -2.939453125000000000e-01 -3.404284070148901886e-01 -4.670726658428769329e-01 8.160585913521972712e-01
-1.336669921875000000e-02 -8.990478515625000000e-02 -2.929687500000000000e-01 -3.135933530003623959e-01 -4.733065676983516101e-01 8.231889831184548978e-01
-1.199340820312500000e-02 -8.990478515625000000e-02 -2.929687500000000000e-01 -2.487877385759623972e-01 -4.955341719535474310e-01 8.321962181844918538e-01
-1.058197021484375000e-02 -8.953857421875000000e-02 -2.919921875000000000e-01 -2.068444166705097065e-01 -5.167081900119367965e-01 8.307996350906907690e-01
-9.208679199218750000e-03 -8.953857421875000000e-02 -2.919921875000000000e-01 -1.650321542801154451e-01 -5.397129171283159277e-01 8.255146001970575798e-01
-7.835388183593750000e-03 -8.953857421875000000e-02 -2.919921875000000000e-01 -1.118691551057773292e-01 -5.639999517087663783e-01 8.181621762269560838e-01
-6.443023681640625000e-03 -8.923339843750000000e-02 -2.910156250000000000e-01 -6.487018078953186995e-02 -5.732701053407877057e-01 8.167944943294460636e-01
-5.077362060546875000e-03 -8.923339843750000000e-02 -2.910156250000000000e-01 -1.045739161435674421e-02 -5.814684396128062538e-01 8.135017496569213469e-01
-3.709793090820312500e-03 -8.923339843750000000e-02 -2.910156250000000000e-01 4.743715377684374485e-02 -5.756595649460424235e-01 8.163123064904052040e-01
-2.344131469726562500e-03 -8.923339843750000000e-02 -2.910156250000000000e-01 1.179760262248316927e-01 -5.565040058423366132e-01 8.224262573128550136e-01
-9.803771972656250000e-04 -8.953857421875000000e-02 -2.919921875000000000e-01 1.620668444075903381e-01 -5.516249481275081745e-01 8.181957311958365509e-01
3.912448883056640625e-04 -8.953857421875000000e-02 -2.919921875000000000e-01 2.113033373508121926e-01 -5.390352580525737958e-01 8.153477112254648995e-01
1.769065856933593750e-03 -8.990478515625000000e-02 -2.929687500000000000e-01 2.152761340641140553e-01 -5.161477541656165346e-01 8.290040301302521453e-01
3.145217895507812500e-03 -8.990478515625000000e-02 -2.929687500000000000e-01 2.467720751191705697e-01 -5.062678765564151417e-01 8.263149400249502063e-01
4.535675048828125000e-03 -9.020996093750000000e-02 -2.939453125000000000e-01 2.468814685031830991e-01 -4.918398325299422336e-01 8.349509684087025319e-01
5.916595458984375000e-03 -9.020996093750000000e-02 -2.939453125000000000e-01 2.453969990300657600e-01 -4.920065858229329958e-01 8.352902683342473544e-01
7.324218750000000000e-03 -9.051513671875000000e-02 -2.949218750000000000e-01 2.907188963063070397e-01 -4.800843312603170765e-01 8.276482092101551391e-01
8.705139160156250000e-03 -9.051513671875000000e-02 -2.949218750000000000e-01 2.783198653559325608e-01 -4.537264006568239583e-01 8.465638817568693630e-01
1.013183593750000000e-02 -9.082031250000000000e-02 -2.961425781250000000e-01 2.996069980710682201e-01 -4.243654928145023653e-01 8.544879023222901049e-01
1.155853271484375000e-02 -9.112548828125000000e-02 -2.971191406250000000e-01 3.097392160629481861e-01 -3.936505053913232910e-01 8.655061511265336183e-01
1.295471191406250000e-02 -9.112548828125000000e-02 -2.971191406250000000e-01 3.309163163752767423e-01 -3.390070706682117296e-01 8.806637256033518213e-01
1.439666748046875000e-02 -9.143066406250000000e-02 -2.980957031250000000e-01 -3.212187876716480206e-01 2.332074585124806476e-01 -9.178413652374280973e-01
1.579284667968750000e-02 -9.143066406250000000e-02 -2.980957031250000000e-01 3.487954940300363460e-01 -1.767649164636300729e-01 9.203781112412163790e-01
1.725769042968750000e-02 -9.173583984375000000e-02 -2.990722656250000000e-01 3.382110776453804424e-01 -9.157515444262646909e-02 9.366041095611099543e-01
1.872253417968750000e-02 -9.204101562500000000e-02 -3.000488281250000000e-01 3.252648654114577154e-01 3.723333388175262271e-02 9.448896476186603444e-01
2.012634277343750000e-02 -9.204101562500000000e-02 -3.000488281250000000e-01 3.416471129230116976e-01 9.985323732105573502e-02 9.345087379087880786e-01
2.160644531250000000e-02 -9.234619140625000000e-02 -3.010253906250000000e-01 3.435541229369739047e-01 2.151888489289290052e-01 9.141467737238090363e-01
2.302551269531250000e-02 -9.234619140625000000e-02 -3.010253906250000000e-01 -3.138338340644705182e-01 -3.157986876057336523e-01 -8.954214167099704413e-01
2.444458007812500000e-02 -9.234619140625000000e-02 -3.010253906250000000e-01 -2.563565073050695919e-01 -4.204201747269655787e-01 -8.703609698538261608e-01
2.593994140625000000e-02 -9.265136718750000000e-02 -3.020019531250000000e-01 -1.973071119055042066e-01 -4.775564227688239849e-01 -8.561598955006904932e-01
2.735900878906250000e-02 -9.265136718750000000e-02 -3.020019531250000000e-01 1.332280780716962876e-01 5.365485625344045273e-01 8.332862168880427189e-01
2.877807617187500000e-02 -9.265136718750000000e-02 -3.020019531250000000e-01 9.080615970923625047e-02 5.818591852962734512e-01 8.082042624517750129e-01
3.019714355468750000e-02 -9.265136718750000000e-02 -3.020019531250000000e-01 5.265764565346147535e-02 6.172645477253990709e-01 7.849914970721614260e-01
3.161621093750000000e-02 -9.265136718750000000e-02 -3.020019531250000000e-01 1.320232075966300787e-02 6.532274888749816100e-01 7.570465946721144368e-01
3.302001953125000000e-02 -9.265136718750000000e-02 -3.020019531250000000e-01 1.368925186315282649e-03 6.750819732979886911e-01 7.377414556414244595e-01
3.445434570312500000e-02 -9.265136718750000000e-02 -3.020019531250000000e-01 -2.677741636042477993e-04 6.764478783499775494e-01 7.364904589828785708e-01
3.585815429687500000e-02 -9.265136718750000000e-02 -3.020019531250000000e-01 4.926605823113538833e-04 6.768007290824848976e-01 7.361661024517276442e-01
-4.483032226562500000e-02 -9.375000000000000000e-02 -3.010253906250000000e-01 6.653939831844174480e-03 6.267363855752172697e-01 7.792029440914779448e-01
-4.342651367187500000e-02 -9.375000000000000000e-02 -3.010253906250000000e-01 1.980362002010432887e-03 -6.727219317718812208e-01 -7.398927494437622654e-01
-4.202270507812500000e-02 -9.375000000000000000e-02 -3.010253906250000000e-01 7.756152407669691939e-04 -6.710256531417220227e-01 -7.414337268068696973e-01
