-3.207397460937500000e-02 1.477050781250000000e-02 -2.298583984375000000e-01 1.566352247057805902e-01 4.760805709728169188e-01 8.653396421773166258e-01
-3.099060058593750000e-02 1.477050781250000000e-02 -2.298583984375000000e-01 1.377057071526961163e-01 4.057194587868892532e-01 9.035645295048104764e-01
-2.990722656250000000e-02 1.477050781250000000e-02 -2.298583984375000000e-01 1.611844927112731640e-01 3.936570887502734983e-01 9.050158317875267588e-01
-2.883911132812500000e-02 1.477050781250000000e-02 -2.298583984375000000e-01 1.878245697724559016e-01 3.721002952532722619e-01 9.089902646685604770e-01
-2.775573730468750000e-02 1.477050781250000000e-02 -2.298583984375000000e-01 1.915235436079543718e-01 3.756988852316291982e-01 9.067353968383295992e-01
-2.679443359375000000e-02 1.483917236328125000e-02 -2.308349609375000000e-01 1.819842419856400328e-01 3.608106180841423871e-01 9.147116668910763027e-01
-2.571105957031250000e-02 1.483917236328125000e-02 -2.308349609375000000e-01 -2.089460820958833898e-01 -3.454672387362636710e-01 -9.148737190108382489e-01
-2.462768554687500000e-02 1.483917236328125000e-02 -2.308349609375000000e-01 -2.173891533688608602e-01 -3.279175431265912155e-01 -9.193541433568405141e-01
-1.736450195312500000e-02 1.342010498046875000e-02 -2.087402343750000000e-01 -2.093586924550302486e-01 -3.742321019042305630e-01 -9.033931988884251751e-01
-1.638793945312500000e-02 1.342010498046875000e-02 -2.087402343750000000e-01 -1.837769380029638522e-01 -4.042441494681727199e-01 -8.959981610913098082e-01
-1.540374755859375000e-02 1.342010498046875000e-02 -2.087402343750000000e-01 1.618396349914445476e-01 4.196518589839514646e-01 8.931406662990717393e-01
-1.442718505859375000e-02 1.342010498046875000e-02 -2.087402343750000000e-01 1.525654438339669183e-01 4.539792270462665869e-01 8.778534312504673309e-01
-1.351165771484375000e-02 1.348114013671875000e-02 -2.097167968750000000e-01 1.348763306085342950e-01 4.985487477182111160e-01 8.563045729121039340e-01
-1.252746582031250000e-02 1.348114013671875000e-02 -2.097167968750000000e-01 1.157846462088982509e-01 5.335581158861776307e-01 8.378004850047965357e-01
-1.153564453125000000e-02 1.348114013671875000e-02 -2.097167968750000000e-01 8.793519468484391199e-02 5.507538779649104876e-01 8.300226306808453636e-01
-1.055145263671875000e-02 1.348114013671875000e-02 -2.097167968750000000e-01 7.091170005532318465e-02 5.617333440121692334e-01 8.242737294249827817e-01
-9.567260742187500000e-03 1.348114013671875000e-02 -2.097167968750000000e-01 6.990600971087496118e-02 5.510301506716314135e-01 8.315521167413996162e-01
-8.583068847656250000e-03 1.348114013671875000e-02 -2.097167968750000000e-01 5.309506872994653598e-02 5.567658256258873894e-01 8.289708855512878394e-01
-7.598876953125000000e-03 1.348114013671875000e-02 -2.097167968750000000e-01 1.031747031518912699e-02 5.712330357767305689e-01 8.207230767095535784e-01
-6.614685058593750000e-03 1.348114013671875000e-02 -2.097167968750000000e-01 -1.771965286510315471e-02 6.008876391034804199e-01 7.991370715183881979e-01
-5.630493164062500000e-03 1.348114013671875000e-02 -2.097167968750000000e-01 8.953680947019294900e-03 6.035737428309018160e-01 7.972569024866422716e-01
-4.642486572265625000e-03 1.348114013671875000e-02 -2.097167968750000000e-01 1.695897500231397306e-02 6.013052859466937461e-01 7.988393745049350292e-01
-3.660202026367187500e-03 1.348114013671875000e-02 -2.097167968750000000e-01 1.550228855655062625e-02 5.813990209834885015e-01 8.134708706825036773e-01
-2.674102783203125000e-03 1.348114013671875000e-02 -2.097167968750000000e-01 5.871248279989445609e-03 5.587031682954379797e-01 8.293469106352746589e-01
-1.688957214355468750e-03 1.348114013671875000e-02 -2.097167968750000000e-01 1.028497837732581487e-02 5.460936508687020963e-01 8.376609956901838183e-01
-7.038116455078125000e-04 1.348114013671875000e-02 -2.097167968750000000e-01 3.602336376124713052e-02 5.348630499063888877e-01 8.441705012070491732e-01
2.810955047607421875e-04 1.348114013671875000e-02 -2.097167968750000000e-01 5.538676950079781530e-02 5.009454959224843851e-01 8.637047619871280890e-01
1.266479492187500000e-03 1.348114013671875000e-02 -2.097167968750000000e-01 5.940747334571598592e-02 4.896147268906549388e-01 8.699127377630859748e-01
2.250671386718750000e-03 1.348114013671875000e-02 -2.097167968750000000e-01 1.145298349811697813e-01 4.620451437709091613e-01 8.794300438448221513e-01
3.236770629882812500e-03 1.348114013671875000e-02 -2.097167968750000000e-01 1.974701686221116137e-01 4.112228733994782726e-01 8.898883530519047236e-01
4.219055175781250000e-03 1.348114013671875000e-02 -2.097167968750000000e-01 2.481227263224864976e-01 3.580109604634967302e-01 9.001462463790542712e-01
5.229949951171875000e-03 1.354980468750000000e-02 -2.108154296875000000e-01 2.806800686206058493e-01 3.033650466510673938e-01 9.105977968068711403e-01
6.221771240234375000e-03 1.354980468750000000e-02 -2.108154296875000000e-01 3.300836056353647074e-01 2.383041784376767058e-01 9.133761173962788860e-01
7.209777832031250000e-03 1.354980468750000000e-02 -2.108154296875000000e-01 3.385030761025745738e-01 1.244334943722589931e-01 9.327014382681114713e-01
8.239746093750000000e-03 1.361083984375000000e-02 -2.117919921875000000e-01 3.848445103732158756e-01 3.424950647821202454e-02 9.223457454455995519e-01
9.231567382812500000e-03 1.361083984375000000e-02 -2.117919921875000000e-01 4.322605824726928336e-01 -6.548121899587199500e-03 9.017249641326097187e-01
1.027679443359375000e-02 1.367950439453125000e-02 -2.127685546875000000e-01 4.313048332770162974e-01 -8.645383184961250023e-02 8.980544948667671390e-01
1.127624511718750000e-02 1.367950439453125000e-02 -2.127685546875000000e-01 4.779282671229724277e-01 -1.583269368693913104e-01 8.640122409702238881e-01
1.233673095703125000e-02 1.374053955078125000e-02 -2.137451171875000000e-01 5.176898381736776411e-01 -2.484585804232329886e-01 8.186974809206286618e-01
1.339721679687500000e-02 1.380920410156250000e-02 -2.147216796875000000e-01 5.040118491730272154e-01 -2.837185435430356062e-01 8.157670279822568649e-01
1.441192626953125000e-02 1.380920410156250000e-02 -2.147216796875000000e-01 4.928601621886828932e-01 -3.069658195579836324e-01 8.141626656574473264e-01
1.548767089843750000e-02 1.387023925781250000e-02 -2.158203125000000000e-01 5.973923444562400098e-01 -3.816847071808434633e-01 7.052936771936573201e-01
1.649475097656250000e-02 1.387023925781250000e-02 -2.158203125000000000e-01 6.204558502947675747e-01 -3.833617449084286699e-01 6.841551800401438621e-01
1.776123046875000000e-02 1.406097412109375000e-02 -2.187500000000000000e-01 6.438284712752617711e-01 -5.718313997137748350e-01 5.084228062122552183e-01
1.887512207031250000e-02 1.412963867187500000e-02 -2.198486328125000000e-01 4.916165544072504945e-01 -5.988330456774844102e-01 6.322279231712015779e-01
1.998901367187500000e-02 1.419067382812500000e-02 -2.208251953125000000e-01 3.529597532623683365e-01 -5.908857110953000813e-01 7.254470959348927606e-01
2.113342285156250000e-02 1.425933837890625000e-02 -2.218017578125000000e-01 2.181579824031435466e-01 -5.517818190648726695e-01 8.049496374701027301e-01
2.217102050781250000e-02 1.425933837890625000e-02 -2.218017578125000000e-01 1.744845012224001957e-01 -5.622026072850501155e-01 8.083831932908193130e-01
2.320861816406250000e-02 1.425933837890625000e-02 -2.218017578125000000e-01 8.621400409054348624e-02 -6.018080461595636255e-01 7.939736904181928789e-01
2.426147460937500000e-02 1.425933837890625000e-02 -2.218017578125000000e-01 2.965100426010819704e-02 -6.435136070584701606e-01 7.648601541961536077e-01
2.529907226562500000e-02 1.425933837890625000e-02 -2.218017578125000000e-01 -1.149745427990884897e-03 -6.516326366489284538e-01 7.585338390206574077e-01
2.633666992187500000e-02 1.425933837890625000e-02 -2.218017578125000000e-01 -8.757164528334743583e-03 -6.516306222857566333e-01 7.584858892351927784e-01
2.737426757812500000e-02 1.425933837890625000e-02 -2.218017578125000000e-01 -3.975400754318799551e-02 -6.433728464911746547e-01 7.645201104497512112e-01
2.842712402343750000e-02 1.425933837890625000e-02 -2.218017578125000000e-01 -8.673731936832602962e-02 -6.277475788424408121e-01 7.735693987524652204e-01
2.946472167968750000e-02 1.425933837890625000e-02 -2.218017578125000000e-01 -1.380593669755927622e-01 -6.115996508439435209e-01 7.790285477938950764e-01
3.050231933593750000e-02 1.425933837890625000e-02 -2.218017578125000000e-01 -1.562761436856388020e-01 -6.039794041085680965e-01 7.815284040438993385e-01
3.140258789062500000e-02 1.419067382812500000e-02 -2.208251953125000000e-01 -1.474435841466622821e-01 -6.862596513360377237e-01 7.122556285787611241e-01
3.244018554687500000e-02 1.419067382812500000e-02 -2.208251953125000000e-01 -1.117045642010389417e-01 -6.904339285776612822e-01 7.147188822225651883e-01
3.347778320312500000e-02 1.419067382812500000e-02 -2.208251953125000000e-01 -9.243373805313361002e-02 -6.804019145687907333e-01 7.269864088967885607e-01
3.451538085937500000e-02 1.419067382812500000e-02 -2.208251953125000000e-01 -1.121729765331459239e-01 -6.681510023050643010e-01 7.355212175419769682e-01
3.555297851562500000e-02 1.419067382812500000e-02 -2.208251953125000000e-01 -1.519913758785356450e-01 -6.798533391757122235e-01 7.174246015228247231e-01
3.659057617187500000e-02 1.419067382812500000e-02 -2.208251953125000000e-01 -1.509207489936691959e-01 -6.916805126209193411e-01 7.062584484334698542e-01
3.744506835937500000e-02 1.412963867187500000e-02 -2.198486328125000000e-01 -1.373015600445778028e-01 -7.146317329679784391e-01 6.858934085151343618e-01
3.848266601562500000e-02 1.412963867187500000e-02 -2.198486328125000000e-01 -1.235741178537528434e-01 -7.146410743598904380e-01 6.884893406832152118e-01
3.952026367187500000e-02 1.412963867187500000e-02 -2.198486328125000000e-01 -1.520733593802542083e-01 -7.291776923631142493e-01 6.672132989732799668e-01
4.055786132812500000e-02 1.412963867187500000e-02 -2.198486328125000000e-01 -1.482274422919893087e-01 -7.442103264687056630e-01 6.512907302648468510e-01
4.156494140625000000e-02 1.412963867187500000e-02 -2.198486328125000000e-01 -1.594099630413772783e-01 -7.290037126167919768e-01 6.656891546916477997e-01
4.241943359375000000e-02 1.406097412109375000e-02 -2.187500000000000000e-01 -1.566117881946718360e-01 -7.762768453162290916e-01 6.106283707987620879e-01
4.345703125000000000e-02 1.406097412109375000e-02 -2.187500000000000000e-01 -1.562892546010834494e-01 -7.811241472633023708e-01 6.044987472761349512e-01
4.446411132812500000e-02 1.406097412109375000e-02 -2.187500000000000000e-01 -1.515397900403243903e-01 -7.871721920275933648e-01 5.978257539894111794e-01
4.550170898437500000e-02 1.406097412109375000e-02 -2.187500000000000000e-01 -1.392293834224354876e-01 -7.790969980423384511e-01 6.112471238649919147e-01
4.632568359375000000e-02 1.399993896484375000e-02 -2.177734375000000000e-01 -1.433995067157649295e-01 -7.983284947630667761e-01 5.849001589357035735e-01
4.733276367187500000e-02 1.399993896484375000e-02 -2.177734375000000000e-01 -1.291666127450039336e-01 -7.990802629598845463e-01 5.871854217365617412e-01
4.837036132812500000e-02 1.399993896484375000e-02 -2.177734375000000000e-01 -8.897385303297258852e-02 -8.105782646772387023e-01 5.788320398088753205e-01
4.937744140625000000e-02 1.399993896484375000e-02 -2.177734375000000000e-01 -1.510545650017335040e-02 -8.297748556704742651e-01 5.578938197192768733e-01
5.041503906250000000e-02 1.399993896484375000e-02 -2.177734375000000000e-01 5.580308639187950975e-02 -8.382463970187673530e-01 5.424287911184244582e-01
5.166625976562500000e-02 1.406097412109375000e-02 -2.187500000000000000e-01 1.505398773847702876e-01 -8.118606884216239550e-01 5.641098899261961508e-01
5.270385742187500000e-02 1.406097412109375000e-02 -2.187500000000000000e-01 -1.994322619350998305e-01 8.074722963463859537e-01 -5.551713821267661997e-01
5.371093750000000000e-02 1.406097412109375000e-02 -2.187500000000000000e-01 -2.322294613453867451e-01 7.993266912384568990e-01 -5.542078292094151371e-01
5.499267578125000000e-02 1.412963867187500000e-02 -2.198486328125000000e-01 -2.867194698440651002e-01 7.365804224276720769e-01 -6.125693649772327998e-01
5.755615234375000000e-02 1.451873779296875000e-02 -2.258300781250000000e-01 -4.363642525418094387e-01 -4.018206389657454358e-01 -8.050629871039831631e-01
5.889892578125000000e-02 1.457977294921875000e-02 -2.268066406250000000e-01 -2.682557490693081581e-01 -5.101605773268318433e-01 -8.171750353705248271e-01
5.996704101562500000e-02 1.457977294921875000e-02 -2.268066406250000000e-01 -2.063017480324066955e-01 -5.320031332730154050e-01 -8.212260681118614958e-01
6.127929687500000000e-02 1.464843750000000000e-02 -2.277832031250000000e-01 1.938195898643557125e-01 5.366999753865928646e-01 8.212107543163590373e-01
6.237792968750000000e-02 1.464843750000000000e-02 -2.277832031250000000e-01 1.411457838196859271e-01 5.511410075461384839e-01 8.223876564680148160e-01
6.341552734375000000e-02 1.464843750000000000e-02 -2.277832031250000000e-01 1.326767454247604894e-01 5.481073675956735780e-01 8.258178944602947436e-01
6.451416015625000000e-02 1.464843750000000000e-02 -2.277832031250000000e-01 8.809243886492380826e-02 5.519293794926842800e-01 8.292247477419195656e-01
6.555175781250000000e-02 1.464843750000000000e-02 -2.277832031250000000e-01 4.913008596812885875e-02 5.669428297521963422e-01 8.222907408242758898e-01
6.665039062500000000e-02 1.464843750000000000e-02 -2.277832031250000000e-01 2.594840160038920304e-02 5.525654357288013463e-01 8.330654954397191947e-01
6.768798828125000000e-02 1.464843750000000000e-02 -2.277832031250000000e-01 2.537499866387557881e-02 5.505812495672842699e-01 8.343958275709053574e-01
6.878662109375000000e-02 1.464843750000000000e-02 -2.277832031250000000e-01 1.083599179270718256e-03 5.406241537971006039e-01 8.412635438101354612e-01
6.982421875000000000e-02 1.464843750000000000e-02 -2.277832031250000000e-01 1.135297131778805488e-03 5.406237848533419488e-01 8.412637127270317094e-01
7.092285156250000000e-02 1.464843750000000000e-02 -2.277832031250000000e-01 1.250945578044183317e-03 5.406249912357744547e-01 8.412627734462517770e-01
7.196044921875000000e-02 1.464843750000000000e-02 -2.277832031250000000e-01 1.195508607846831970e-03 5.406204862761234686e-01 8.412657490815471650e-01
7.305908203125000000e-02 1.464843750000000000e-02 -2.277832031250000000e-01 1.324370748780172259e-03 5.406225545975195113e-01 8.412642269243187920e-01
7.409667968750000000e-02 1.464843750000000000e-02 -2.277832031250000000e-01 1.366913236268760398e-03 5.406189623791679555e-01 8.412664673361682777e-01
7.519531250000000000e-02 1.464843750000000000e-02 -2.277832031250000000e-01 1.312251442901148438e-03 5.406164918595190993e-01 8.412681419890194467e-01
7.623291015625000000e-02 1.464843750000000000e-02 -2.277832031250000000e-01 1.369955648276009871e-03 5.406143586053494543e-01 8.412694208701803067e-01
7.733154296875000000e-02 1.464843750000000000e-02 -2.277832031250000000e-01 1.415350500889118275e-03 5.406123147520808248e-01 8.412706591349521368e-01
7.843017578125000000e-02 1.464843750000000000e-02 -2.277832031250000000e-01 -1.970648135527824918e-02 5.493535168827092807e-01 8.353576288519743986e-01
7.946777343750000000e-02 1.464843750000000000e-02 -2.277832031250000000e-01 -3.369940284307174072e-02 5.574985609918595708e-01 8.294936435802424679e-01
8.056640625000000000e-02 1.464843750000000000e-02 -2.277832031250000000e-01 -4.004563548712742477e-02 5.655873912711537610e-01 8.237155151589188318e-01
8.160400390625000000e-02 1.464843750000000000e-02 -2.277832031250000000e-01 -3.825658605599970008e-02 5.737704067521575135e-01 8.181222121167494032e-01
8.270263671875000000e-02 1.464843750000000000e-02 -2.277832031250000000e-01 -2.894261605018115871e-02 5.818697025008738866e-01 8.127668634286933091e-01
8.374023437500000000e-02 1.464843750000000000e-02 -2.277832031250000000e-01 -1.243955830597053697e-02 5.893903171074544867e-01 8.077526301344529758e-01
8.483886718750000000e-02 1.464843750000000000e-02 -2.277832031250000000e-01 1.797214659021282093e-03 5.868206751880026273e-01 8.097149283490864269e-01
8.587646484375000000e-02 1.464843750000000000e-02 -2.277832031250000000e-01 1.035580152291640244e-02 5.955077196275013751e-01 8.032828351451754001e-01
8.697509765625000000e-02 1.464843750000000000e-02 -2.277832031250000000e-01 2.300516610927642175e-02 5.738158372929185180e-01 8.186611919494605205e-01
8.801269531250000000e-02 1.464843750000000000e-02 -2.277832031250000000e-01 -8.581609144095760089e-03 -5.599906226705622103e-01 -8.284544999609415594e-01
8.911132812500000000e-02 1.464843750000000000e-02 -2.277832031250000000e-01 -1.555698924286780249e-02 -5.571573709055179791e-01 -8.302611903078139788e-01
-6.176757812500000000e-02 1.357269287109375000e-02 -2.277832031250000000e-01 3.549908869537420769e-02 -5.408349286179426896e-01 -8.403793159571594229e-01
-6.066894531250000000e-02 1.357269287109375000e-02 -2.277832031250000000e-01 3.549908869537420769e-02 -5.408349286179426896e-01 -8.403793159571594229e-01
-5.960083007812500000e-02 1.357269287109375000e-02 -2.277832031250000000e-01 -7.069057299736267175e-02 5.605078504294850328e-01 8.251265312036829558e-01
-5.853271484375000000e-02 1.357269287109375000e-02 -2.277832031250000000e-01 -6.147755887014267479e-02 5.573857289267102333e-01 8.279744313348135210e-01
-5.746459960937500000e-02 1.357269287109375000e-02 -2.277832031250000000e-01 -6.509947807527226293e-02 5.535571758105682916e-01 8.302629168299368034e-01
-5.639648437500000000e-02 1.357269287109375000e-02 -2.277832031250000000e-01 -6.185286944741228560e-02 5.625553344799519850e-01 8.244426712569351556e-01
-5.532836914062500000e-02 1.357269287109375000e-02 -2.277832031250000000e-01 -3.714125002887762317e-02 5.694533316849859084e-01 8.211841636193198957e-01
-5.426025390625000000e-02 1.357269287109375000e-02 -2.277832031250000000e-01 -4.313095922009371058e-02 5.652199999491526183e-01 8.238119154359413443e-01
-5.319213867187500000e-02 1.357269287109375000e-02 -2.277832031250000000e-01 -4.051610198038103905e-02 5.847101853958730500e-01 8.102298714405926638e-01
-5.212402343750000000e-02 1.357269287109375000e-02 -2.277832031250000000e-01 -4.886059695693954763e-02 5.743680864765179361e-01 8.171376526034733745e-01
-5.105590820312500000e-02 1.357269287109375000e-02 -2.277832031250000000e-01 -4.920567995609295697e-02 5.644742628117839223e-01 8.239827714722871566e-01
-4.998779296875000000e-02 1.357269287109375000e-02 -2.277832031250000000e-01 -4.139856214441690885e-02 5.549300727320707338e-01 8.308662789101224355e-01
-4.891967773437500000e-02 1.357269287109375000e-02 -2.277832031250000000e-01 -2.467813547047500305e-02 5.452215565628550920e-01 8.379286627684233713e-01
-4.785156250000000000e-02 1.357269287109375000e-02 -2.277832031250000000e-01 1.083544984601451889e-03 5.341923840450778505e-01 8.453622435136919355e-01
-4.678344726562500000e-02 1.357269287109375000e-02 -2.277832031250000000e-01 1.119802425039095970e-03 5.341909120745835793e-01 8.453631264134090495e-01
-4.568481445312500000e-02 1.357269287109375000e-02 -2.277832031250000000e-01 1.178677055165976541e-03 5.341904239250033770e-01 8.453633548405233844e-01
-4.461669921875000000e-02 1.357269287109375000e-02 -2.277832031250000000e-01 1.248719566622594028e-03 5.341890213080804362e-01 8.453641406005812931e-01
-4.354858398437500000e-02 1.357269287109375000e-02 -2.277832031250000000e-01 1.307943039038219268e-03 5.341879953783175150e-01 8.453646993331938031e-01
-4.248046875000000000e-02 1.357269287109375000e-02 -2.277832031250000000e-01 1.368929809964288631e-03 5.341867700127758134e-01 8.453653770852537219e-01
-4.141235351562500000e-02 1.357269287109375000e-02 -2.277832031250000000e-01 2.646162181181602527e-02 5.468114950070601665e-01 8.368374821309286782e-01
-4.034423828125000000e-02 1.357269287109375000e-02 -2.277832031250000000e-01 4.322370801828363113e-02 5.577540965778611248e-01 8.288800147281656372e-01
-3.927612304687500000e-02 1.357269287109375000e-02 -2.277832031250000000e-01 8.217868932085162226e-02 5.736449019109499670e-01 8.149712814161510499e-01
-3.820800781250000000e-02 1.357269287109375000e-02 -2.277832031250000000e-01 1.055660618999689077e-01 5.727700800935183745e-01 8.128900552501528987e-01
-3.713989257812500000e-02 1.357269287109375000e-02 -2.277832031250000000e-01 1.392348474246384027e-01 5.784716338918852729e-01 8.037314390050263047e-01
-3.607177734375000000e-02 1.357269287109375000e-02 -2.277832031250000000e-01 1.338541796394338845e-01 5.815866002042274774e-01 8.023964637608655970e-01
-3.500366210937500000e-02 1.357269287109375000e-02 -2.277832031250000000e-01 1.586387859343319218e-01 5.375872136893874442e-01 8.281507853494810556e-01
-3.408813476562500000e-02 1.363372802734375000e-02 -2.288818359375000000e-01 1.775335380572898580e-01 5.273236347725618334e-01 8.309101197332444677e-01
-3.298950195312500000e-02 1.363372802734375000e-02 -2.288818359375000000e-01 2.119079677444414000e-01 4.680739668554319555e-01 8.579054579373187606e-01
-3.192138671875000000e-02 1.363372802734375000e-02 -2.288818359375000000e-01 2.070603533062966017e-01 3.957550611796743500e-01 8.947088585899570790e-01
-3.085327148437500000e-02 1.363372802734375000e-02 -2.288818359375000000e-01 1.963346408945954025e-01 3.849097558411267994e-01 9.018299111490559739e-01
-2.990722656250000000e-02 1.369476318359375000e-02 -2.298583984375000000e-01 1.822647398872317970e-01 3.644903097169036599e-01 9.131956957390433560e-01
-2.883911132812500000e-02 1.369476318359375000e-02 -2.298583984375000000e-01 1.780566397632314668e-01 3.587417901389210462e-01 9.162969829941323141e-01
-2.775573730468750000e-02 1.369476318359375000e-02 -2.298583984375000000e-01 1.742787629582149556e-01 3.398509337482890080e-01 9.241905948516088154e-01
-2.667236328125000000e-02 1.369476318359375000e-02 -2.298583984375000000e-01 -1.990261432340396652e-01 -3.709869572564308271e-01 -9.070596848361185405e-01
-2.571105957031250000e-02 1.375579833984375000e-02 -2.308349609375000000e-01 -1.916856761069857806e-01 -3.510294475832695937e-01 -9.165341938546496259e-01
-1.824951171875000000e-02 1.237487792968750000e-02 -2.077636718750000000e-01 -1.478118039566548580e-01 -3.517047987687841326e-01 -9.243675703604534721e-01
-1.728820800781250000e-02 1.237487792968750000e-02 -2.077636718750000000e-01 -1.600803155335554506e-01 -3.677448527133695411e-01 -9.160447674003162621e-01
-1.631164550781250000e-02 1.237487792968750000e-02 -2.077636718750000000e-01 1.728785318694471829e-01 4.131938429559203763e-01 8.940826926867462277e-01
-1.540374755859375000e-02 1.243591308593750000e-02 -2.087402343750000000e-01 1.419239724743004416e-01 4.199575953014034746e-01 8.963778244611902979e-01
-1.442718505859375000e-02 1.243591308593750000e-02 -2.087402343750000000e-01 1.295793636370189683e-01 4.182911756555061644e-01 8.990226253483055707e-01
-1.344299316406250000e-02 1.243591308593750000e-02 -2.087402343750000000e-01 1.081705587196004070e-01 4.687915399103391723e-01 8.766604943390471361e-01
-1.246643066406250000e-02 1.243591308593750000e-02 -2.087402343750000000e-01 5.879735526957587111e-02 4.953265970373016414e-01 8.667147358160871562e-01
-1.148223876953125000e-02 1.243591308593750000e-02 -2.087402343750000000e-01 7.126215368962460217e-02 5.074474535426036770e-01 8.587309167280768873e-01
-1.050567626953125000e-02 1.243591308593750000e-02 -2.087402343750000000e-01 6.591754242173952782e-02 5.371890425101848443e-01 8.408821619038359119e-01
-9.521484375000000000e-03 1.243591308593750000e-02 -2.087402343750000000e-01 4.263477225060065268e-02 5.640313699096927147e-01 8.246519811125991861e-01
-8.544921875000000000e-03 1.243591308593750000e-02 -2.087402343750000000e-01 1.126065382542186348e-02 5.863116250544085917e-01 8.100073308319392096e-01
-7.564544677734375000e-03 1.243591308593750000e-02 -2.087402343750000000e-01 -1.984990739484338712e-02 6.058696282865857485e-01 7.953162733757498382e-01
-6.584167480468750000e-03 1.243591308593750000e-02 -2.087402343750000000e-01 -1.983286170907396645e-02 5.969683575309713275e-01 8.020195993261031164e-01
-5.603790283203125000e-03 1.243591308593750000e-02 -2.087402343750000000e-01 3.583913154569270780e-03 5.964720495400991362e-01 8.026258466333701103e-01
-4.623413085937500000e-03 1.243591308593750000e-02 -2.087402343750000000e-01 2.715233249260775791e-02 5.946618296861885256e-01 8.035173048257799877e-01
-3.641128540039062500e-03 1.243591308593750000e-02 -2.087402343750000000e-01 5.084603527082828117e-02 5.915282097918531656e-01 8.046794751437886806e-01
-2.660751342773437500e-03 1.243591308593750000e-02 -2.087402343750000000e-01 4.777557951547809628e-02 5.584912371905810247e-01 8.281334626636545071e-01
-1.681327819824218750e-03 1.243591308593750000e-02 -2.087402343750000000e-01 2.532946703908899033e-02 5.487521876710761415e-01 8.356012533653378593e-01
-7.004737854003906250e-04 1.243591308593750000e-02 -2.087402343750000000e-01 4.167518354721232166e-02 5.118701143558478384e-01 8.580513767284786431e-01
2.796649932861328125e-04 1.243591308593750000e-02 -2.087402343750000000e-01 7.025022834353232548e-02 5.074012237644663914e-01 8.588416056177085034e-01
1.259803771972656250e-03 1.243591308593750000e-02 -2.087402343750000000e-01 1.344853234956634447e-01 4.625422268412562321e-01 8.763380547214634220e-01
2.250671386718750000e-03 1.249694824218750000e-02 -2.097167968750000000e-01 1.444625275782555340e-01 4.120572988415577842e-01 8.996329032428176387e-01
3.236770629882812500e-03 1.249694824218750000e-02 -2.097167968750000000e-01 2.258467142522322668e-01 3.536568713607947112e-01 9.077004346152781622e-01
4.219055175781250000e-03 1.249694824218750000e-02 -2.097167968750000000e-01 2.989305154133066189e-01 2.713104132332942453e-01 9.148940958525821898e-01
5.207061767578125000e-03 1.249694824218750000e-02 -2.097167968750000000e-01 3.367481760562510695e-01 1.996909638494140937e-01 9.201761705671801517e-01
6.221771240234375000e-03 1.255798339843750000e-02 -2.108154296875000000e-01 4.283228187571921364e-01 8.781555675939430039e-02 8.993486481464966209e-01
7.209777832031250000e-03 1.255798339843750000e-02 -2.108154296875000000e-01 4.495589766525714959e-01 4.929463568706959897e-02 8.918894356385054234e-01
8.239746093750000000e-03 1.261901855468750000e-02 -2.117919921875000000e-01 4.244778613378186738e-01 -6.900571467737622033e-02 9.028049382762236563e-01
9.231567382812500000e-03 1.261901855468750000e-02 -2.117919921875000000e-01 4.693898533109897575e-01 -1.387512753372631968e-01 8.720213582252274165e-01
1.027679443359375000e-02 1.268005371093750000e-02 -2.127685546875000000e-01 5.131600996880193444e-01 -2.434059864173739596e-01 8.230554281847408671e-01
1.132965087890625000e-02 1.274108886718750000e-02 -2.137451171875000000e-01 5.357703148629670009e-01 -3.190224626344706493e-01 7.817767187926966121e-01
1.233673095703125000e-02 1.274108886718750000e-02 -2.137451171875000000e-01 5.241999488632701487e-01 -3.340542770316682342e-01 7.833403817042721151e-01
1.339721679687500000e-02 1.279449462890625000e-02 -2.147216796875000000e-01 5.066946646413026389e-01 -4.126122840744066989e-01 7.569753099374766370e-01
1.447296142578125000e-02 1.285552978515625000e-02 -2.158203125000000000e-01 5.464605005618417000e-01 -4.968424013417946927e-01 6.741873252699285279e-01
1.556396484375000000e-02 1.291656494140625000e-02 -2.167968750000000000e-01 6.280314978052947694e-01 -5.038468840082308553e-01 5.930554402748821063e-01
1.649475097656250000e-02 1.285552978515625000e-02 -2.158203125000000000e-01 6.374153218607228055e-01 -4.783466319775613318e-01 6.040581156916234873e-01
1.800537109375000000e-02 1.321411132812500000e-02 -2.218017578125000000e-01 4.910327320134805773e-01 -4.118765831615443518e-01 7.676226523068145902e-01
1.895141601562500000e-02 1.315307617187500000e-02 -2.208251953125000000e-01 4.624311372591773384e-01 -5.018221060751031359e-01 7.309801756186905530e-01
2.008056640625000000e-02 1.321411132812500000e-02 -2.218017578125000000e-01 2.985504194808744072e-01 -4.259587644279402840e-01 8.540648558715061567e-01
2.113342285156250000e-02 1.321411132812500000e-02 -2.218017578125000000e-01 2.440422029350948485e-01 -4.306843971896247014e-01 8.688810926726369122e-01
2.227783203125000000e-02 1.327514648437500000e-02 -2.227783203125000000e-01 2.030143801164263906e-01 -4.456301256676536982e-01 8.718938883622102676e-01
2.331542968750000000e-02 1.327514648437500000e-02 -2.227783203125000000e-01 1.177103317942253813e-01 -4.880380657139349321e-01 8.648486134596587993e-01
2.436828613281250000e-02 1.327514648437500000e-02 -2.227783203125000000e-01 5.588748700788576801e-02 -5.378819081576367012e-01 8.411656446102890872e-01
2.540588378906250000e-02 1.327514648437500000e-02 -2.227783203125000000e-01 -1.749574022398190992e-03 -5.499504656223058729e-01 8.351954408116396555e-01
2.645874023437500000e-02 1.327514648437500000e-02 -2.227783203125000000e-01 -1.101508932189351753e-02 -5.494131513497171326e-01 8.354782205008119966e-01
2.751159667968750000e-02 1.327514648437500000e-02 -2.227783203125000000e-01 -4.668966866901460427e-02 -5.492548269909365288e-01 8.343495729409429185e-01
2.854919433593750000e-02 1.327514648437500000e-02 -2.227783203125000000e-01 -1.023522502602186302e-01 -5.177092516867889405e-01 8.494122365404059849e-01
2.960205078125000000e-02 1.327514648437500000e-02 -2.227783203125000000e-01 -1.156770923995990713e-01 -5.092944167762859520e-01 8.527825088112896967e-01
3.050231933593750000e-02 1.321411132812500000e-02 -2.218017578125000000e-01 -1.558103021125353538e-01 -5.769714871656931310e-01 8.017649610412074246e-01
3.155517578125000000e-02 1.321411132812500000e-02 -2.218017578125000000e-01 -1.455257740558971724e-01 -5.849034541298734347e-01 7.979412249234744126e-01
3.259277343750000000e-02 1.321411132812500000e-02 -2.218017578125000000e-01 -1.045755959916673944e-01 -5.658362469415356699e-01 8.178589648405799606e-01
3.363037109375000000e-02 1.321411132812500000e-02 -2.218017578125000000e-01 -8.393245565447932099e-02 -5.760609265812861590e-01 8.130861896220590301e-01
3.466796875000000000e-02 1.321411132812500000e-02 -2.218017578125000000e-01 -1.078418428208838681e-01 -5.518518931255537163e-01 8.269399161914595675e-01
3.570556640625000000e-02 1.321411132812500000e-02 -2.218017578125000000e-01 -1.333472067517455506e-01 -5.541454529005421792e-01 8.216698482244314539e-01
3.659057617187500000e-02 1.315307617187500000e-02 -2.208251953125000000e-01 -1.635623500080184978e-01 -6.336112688250058467e-01 7.561640811872913925e-01
3.762817382812500000e-02 1.315307617187500000e-02 -2.208251953125000000e-01 -1.423319029433097460e-01 -6.380657783608133515e-01 7.567124235066753357e-01
3.866577148437500000e-02 1.315307617187500000e-02 -2.208251953125000000e-01 -1.177859077556760864e-01 -6.455928448569190348e-01 7.545438082733972873e-01
3.970336914062500000e-02 1.315307617187500000e-02 -2.208251953125000000e-01 -1.310959847852948279e-01 -6.437966245671616905e-01 7.538831135985888388e-01
4.074096679687500000e-02 1.315307617187500000e-02 -2.208251953125000000e-01 -1.382059427122469542e-01 -6.671883969920358037e-01 7.319554360193091247e-01
4.177856445312500000e-02 1.315307617187500000e-02 -2.208251953125000000e-01 -1.632571979525241357e-01 -6.591082671988415242e-01 7.341140098287397553e-01
4.260253906250000000e-02 1.309967041015625000e-02 -2.198486328125000000e-01 -1.377322527347228653e-01 -7.137725152704961218e-01 6.867012618315533334e-01
4.364013671875000000e-02 1.309967041015625000e-02 -2.198486328125000000e-01 -1.254330829310296436e-01 -6.903650606387246036e-01 7.125044734987335815e-01
4.467773437500000000e-02 1.309967041015625000e-02 -2.198486328125000000e-01 -1.515831044276048090e-01 -7.286540000544110551e-01 6.678966317154144683e-01
4.571533203125000000e-02 1.309967041015625000e-02 -2.198486328125000000e-01 -1.478119451084674574e-01 -7.436438173612762714e-01 6.520318257444188692e-01
4.675292968750000000e-02 1.309967041015625000e-02 -2.198486328125000000e-01 -1.592012376703736964e-01 -7.288789246733088367e-01 6.658757234584410378e-01
4.754638671875000000e-02 1.303863525390625000e-02 -2.187500000000000000e-01 -1.242730833761529347e-01 -7.499275604638119264e-01 6.497421448582347825e-01
4.858398437500000000e-02 1.303863525390625000e-02 -2.187500000000000000e-01 -3.582153856836774175e-02 -7.582520350135026899e-01 6.509767037094926767e-01
4.962158203125000000e-02 1.303863525390625000e-02 -2.187500000000000000e-01 7.666545960816967265e-02 -7.709614729428385660e-01 6.322505947335097520e-01
5.062866210937500000e-02 1.303863525390625000e-02 -2.187500000000000000e-01 9.372901166219305136e-02 -7.861093387424703538e-01 6.109394240959609146e-01
5.191040039062500000e-02 1.309967041015625000e-02 -2.198486328125000000e-01 2.491267425856223405e-01 -6.944136761772363720e-01 6.750744495732996509e-01
5.294799804687500000e-02 1.309967041015625000e-02 -2.198486328125000000e-01 2.742897002152414609e-01 -7.297943824112794742e-01 6.262310434310744967e-01
5.422973632812500000e-02 1.315307617187500000e-02 -2.208251953125000000e-01 3.274986837451927535e-01 -6.136839256980419766e-01 7.184265108450595960e-01
5.551147460937500000e-02 1.321411132812500000e-02 -2.218017578125000000e-01 5.285814223879087281e-01 -4.692848282564000550e-01 7.073707866986987947e-01
5.755615234375000000e-02 1.345825195312500000e-02 -2.258300781250000000e-01 -4.456892403082859389e-01 -3.748847120252292719e-01 -8.129099296743665937e-01
5.862426757812500000e-02 1.345825195312500000e-02 -2.258300781250000000e-01 -3.276564542586648532e-01 -4.578421117738467050e-01 -8.264513589250754855e-01
5.996704101562500000e-02 1.351165771484375000e-02 -2.268066406250000000e-01 2.154623863186150845e-01 4.828014777176881100e-01 8.488101632258562290e-01
6.103515625000000000e-02 1.351165771484375000e-02 -2.268066406250000000e-01 2.051494205922815006e-01 4.924128530911398016e-01 8.458388128605206502e-01
6.210327148437500000e-02 1.351165771484375000e-02 -2.268066406250000000e-01 1.525561600442084387e-01 5.156814923062426059e-01 8.430890916892309628e-01
6.311035156250000000e-02 1.351165771484375000e-02 -2.268066406250000000e-01 1.335832515246742624e-01 5.184602121384637163e-01 8.446031750718409059e-01
6.420898437500000000e-02 1.351165771484375000e-02 -2.268066406250000000e-01 8.755712744247819146e-02 5.562306237576446488e-01 8.264025911311043693e-01
6.555175781250000000e-02 1.357269287109375000e-02 -2.277832031250000000e-01 4.855275419795326147e-02 5.430857421504514670e-01 8.382723344669597010e-01
6.665039062500000000e-02 1.357269287109375000e-02 -2.277832031250000000e-01 4.066082728744985914e-02 5.413270489728686519e-01 8.398283891216262731e-01
6.768798828125000000e-02 1.357269287109375000e-02 -2.277832031250000000e-01 2.291943546934941886e-02 5.336892711294259906e-01 8.453700144665106109e-01
6.878662109375000000e-02 1.357269287109375000e-02 -2.277832031250000000e-01 8.204429536539625508e-04 5.360344110310901744e-01 8.441957338579200165e-01
6.982421875000000000e-02 1.357269287109375000e-02 -2.277832031250000000e-01 -1.658132657507897616e-04 5.341678074206820392e-01 8.453784513585274052e-01
7.092285156250000000e-02 1.357269287109375000e-02 -2.277832031250000000e-01 9.522177443104725162e-04 5.360358638966787881e-01 8.441946729859817200e-01
7.196044921875000000e-02 1.357269287109375000e-02 -2.277832031250000000e-01 9.371936645417863017e-04 5.360328756722381183e-01 8.441965872156710349e-01
7.305908203125000000e-02 1.357269287109375000e-02 -2.277832031250000000e-01 1.026802445091333634e-03 5.360346741960353434e-01 8.441953409823398369e-01
7.409667968750000000e-02 1.357269287109375000e-02 -2.277832031250000000e-01 1.102677479369514177e-03 5.360326383880539280e-01 8.441965379490242727e-01
7.519531250000000000e-02 1.357269287109375000e-02 -2.277832031250000000e-01 1.113885863695949401e-03 5.360311125379538799e-01 8.441974920891474055e-01
7.623291015625000000e-02 1.357269287109375000e-02 -2.277832031250000000e-01 1.167146460803764703e-03 5.360293442335641867e-01 8.441985429326885892e-01
7.733154296875000000e-02 1.357269287109375000e-02 -2.277832031250000000e-01 1.179104562898043978e-03 5.360276772315357707e-01 8.441995847867931335e-01
7.843017578125000000e-02 1.357269287109375000e-02 -2.277832031250000000e-01 -2.092616193864091714e-02 5.377659847770582813e-01 8.428344092188444492e-01
7.946777343750000000e-02 1.357269287109375000e-02 -2.277832031250000000e-01 -3.581210646669074488e-02 5.391238592581156785e-01 8.414647689648413476e-01
8.056640625000000000e-02 1.357269287109375000e-02 -2.277832031250000000e-01 -4.305405223410704862e-02 5.406482530549638899e-01 8.401463057437308368e-01
8.123779296875000000e-02 1.351165771484375000e-02 -2.268066406250000000e-01 -4.223038450153451806e-02 5.381873683029294586e-01 8.417665657556253622e-01
8.233642578125000000e-02 1.351165771484375000e-02 -2.268066406250000000e-01 -3.487399769433964514e-02 5.371523821699472068e-01 8.427639779997518898e-01
8.337402343750000000e-02 1.351165771484375000e-02 -2.268066406250000000e-01 -1.961659161701965332e-02 5.362095193510270086e-01 8.438569432615172783e-01
8.447265625000000000e-02 1.351165771484375000e-02 -2.268066406250000000e-01 2.755643548019433113e-03 5.345330656897201438e-01 8.451430696118767960e-01
8.551025390625000000e-02 1.351165771484375000e-02 -2.268066406250000000e-01 2.780287505890345883e-03 5.345286412606525817e-01 8.451457872304785068e-01
8.660888671875000000e-02 1.351165771484375000e-02 -2.268066406250000000e-01 5.828331830821065554e-03 5.471920680280777383e-01 8.369867808007634968e-01
8.764648437500000000e-02 1.351165771484375000e-02 -2.268066406250000000e-01 9.888650541773970001e-03 5.592787469926285837e-01 8.289206824255369588e-01
8.868408203125000000e-02 1.351165771484375000e-02 -2.268066406250000000e-01 -1.257226296531027861e-02 -5.712232952332630953e-01 -8.206984130524339616e-01
-6.176757812500000000e-02 1.250457763671875000e-02 -2.277832031250000000e-01 3.374980228447366920e-02 -5.768030627182164638e-01 -8.161857494986326511e-01
-6.066894531250000000e-02 1.250457763671875000e-02 -2.277832031250000000e-01 4.770690655823257853e-02 -5.714188917826945602e-01 -8.192707130005816296e-01
-5.960083007812500000e-02 1.250457763671875000e-02 -2.277832031250000000e-01 -4.195914049892942449e-02 5.515240766321237720e-01 8.331030088912622089e-01
-5.828857421875000000e-02 1.245117187500000000e-02 -2.268066406250000000e-01 -7.286686378194305591e-02 5.501068052490546423e-01 8.319092035680711872e-01
-5.722045898437500000e-02 1.245117187500000000e-02 -2.268066406250000000e-01 -7.278261927151213895e-02 5.492875771769677451e-01 8.324577153772045879e-01
-5.615234375000000000e-02 1.245117187500000000e-02 -2.268066406250000000e-01 -6.486076862383911845e-02 5.593231675899520416e-01 8.264082979318803091e-01
-5.508422851562500000e-02 1.245117187500000000e-02 -2.268066406250000000e-01 -4.273494284634548473e-02 5.702014301358711013e-01 8.203926216945925942e-01
-5.401611328125000000e-02 1.245117187500000000e-02 -2.268066406250000000e-01 -4.777134845448118006e-02 5.838128776009952059e-01 8.104815989361422446e-01
-5.294799804687500000e-02 1.245117187500000000e-02 -2.268066406250000000e-01 -5.972916590927303260e-02 5.899337985023489495e-01 8.052394303090059102e-01
-5.187988281250000000e-02 1.245117187500000000e-02 -2.268066406250000000e-01 -4.983286646596184200e-02 5.945642097923872216e-01 8.025023899364660540e-01
-5.081176757812500000e-02 1.245117187500000000e-02 -2.268066406250000000e-01 -4.382464113579991744e-02 5.909768721163397576e-01 8.054971989106516350e-01
-4.977416992187500000e-02 1.245117187500000000e-02 -2.268066406250000000e-01 -2.249959431237382942e-02 5.858574865265702147e-01 8.101017057978264768e-01
-4.870605468750000000e-02 1.245117187500000000e-02 -2.268066406250000000e-01 6.830779798312151124e-04 5.882794265521479327e-01 8.086574365576251200e-01
-4.763793945312500000e-02 1.245117187500000000e-02 -2.268066406250000000e-01 6.609202498949208991e-04 5.882765253650540371e-01 8.086595655087759349e-01
-4.656982421875000000e-02 1.245117187500000000e-02 -2.268066406250000000e-01 6.790154119575337764e-04 5.882751155930393550e-01 8.086605760837276557e-01
-4.550170898437500000e-02 1.245117187500000000e-02 -2.268066406250000000e-01 7.302871650015075027e-04 5.882750195810847460e-01 8.086606012521760922e-01
-4.443359375000000000e-02 1.245117187500000000e-02 -2.268066406250000000e-01 7.392981424065176712e-04 5.882737668083070082e-01 8.086615044154273901e-01
-4.336547851562500000e-02 1.245117187500000000e-02 -2.268066406250000000e-01 7.893485012783293302e-04 5.882734416186625737e-01 8.086616936736138461e-01
-4.229736328125000000e-02 1.245117187500000000e-02 -2.268066406250000000e-01 9.082103146019681814e-04 5.882761552545939798e-01 8.086595948314081461e-01
-4.122924804687500000e-02 1.245117187500000000e-02 -2.268066406250000000e-01 2.148461879345740788e-02 5.735800288933201596e-01 8.188677314499807069e-01
-4.016113281250000000e-02 1.245117187500000000e-02 -2.268066406250000000e-01 6.874637107603710773e-02 5.704852078338860100e-01 8.184256619306384817e-01
-3.909301757812500000e-02 1.245117187500000000e-02 -2.268066406250000000e-01 9.232097025584118377e-02 5.638803081678888107e-01 8.206801060775794632e-01
-3.802490234375000000e-02 1.245117187500000000e-02 -2.268066406250000000e-01 1.141967305078149530e-01 5.564427464971114512e-01 8.230009578439608786e-01
-3.698730468750000000e-02 1.245117187500000000e-02 -2.268066406250000000e-01 1.220662995016961183e-01 5.378923837532741947e-01 8.341292477944786121e-01
-3.591918945312500000e-02 1.245117187500000000e-02 -2.268066406250000000e-01 1.783849001998394357e-01 5.176247686075158283e-01 8.368054889307963151e-01
-3.500366210937500000e-02 1.250457763671875000e-02 -2.277832031250000000e-01 1.912676197979298054e-01 5.259845086384563606e-01 8.287080271658989750e-01
-3.393554687500000000e-02 1.250457763671875000e-02 -2.277832031250000000e-01 2.516775281225091532e-01 4.844616071392914836e-01 8.378277705150136700e-01
-3.286743164062500000e-02 1.250457763671875000e-02 -2.277832031250000000e-01 2.914127371260420429e-01 4.518353218411798045e-01 8.431627711049545226e-01
-3.192138671875000000e-02 1.255798339843750000e-02 -2.288818359375000000e-01 2.502021387982925615e-01 4.288864243806245202e-01 8.680180440075900838e-01
-3.085327148437500000e-02 1.255798339843750000e-02 -2.288818359375000000e-01 1.981551219237478734e-01 4.044043171746706244e-01 8.928559211350244329e-01
-2.978515625000000000e-02 1.255798339843750000e-02 -2.288818359375000000e-01 1.783678117602053859e-01 3.941176174765160800e-01 9.015853965778896084e-01
-2.870178222656250000e-02 1.255798339843750000e-02 -2.288818359375000000e-01 -1.791979837347290050e-01 -4.170525642461153093e-01 -8.910416607999580574e-01
-2.775573730468750000e-02 1.261138916015625000e-02 -2.298583984375000000e-01 -1.522768954170430344e-01 -4.085782259669071270e-01 -8.999308753387018633e-01
-2.667236328125000000e-02 1.261138916015625000e-02 -2.298583984375000000e-01 -1.708351898484401776e-01 -3.927114343610625946e-01 -9.036553918566104793e-01
-2.011108398437500000e-02 1.134490966796875000e-02 -2.067871093750000000e-01 -1.534107530961680843e-01 -3.782904660460550961e-01 -9.128863369188547905e-01
-1.913452148437500000e-02 1.134490966796875000e-02 -2.067871093750000000e-01 -1.403469365685427461e-01 -4.343603503583282066e-01 -8.897380645068617699e-01
-1.824951171875000000e-02 1.140594482421875000e-02 -2.077636718750000000e-01 -1.470393919737047750e-01 -3.941461486519042268e-01 -9.072090336360600915e-01
-1.728820800781250000e-02 1.140594482421875000e-02 -2.077636718750000000e-01 1.546445562785385974e-01 3.684689999440988739e-01 9.166873279879075298e-01
-1.631164550781250000e-02 1.140594482421875000e-02 -2.077636718750000000e-01 1.366475332371800411e-01 3.963104486665604553e-01 9.078906762038606582e-01
-1.533508300781250000e-02 1.140594482421875000e-02 -2.077636718750000000e-01 8.417203568910379408e-02 4.069706363092979728e-01 9.095548194528778607e-01
-1.435852050781250000e-02 1.140594482421875000e-02 -2.077636718750000000e-01 8.294221803011020411e-02 4.630672298443090362e-01 8.824337533846740023e-01
-1.338195800781250000e-02 1.140594482421875000e-02 -2.077636718750000000e-01 4.136690635321167708e-02 4.892029305629833069e-01 8.711884249617608544e-01
-1.240539550781250000e-02 1.140594482421875000e-02 -2.077636718750000000e-01 3.836138843851901598e-02 5.215196356325988436e-01 8.523764857894136071e-01
-1.142883300781250000e-02 1.140594482421875000e-02 -2.077636718750000000e-01 3.995972678411319895e-02 5.233441805858860540e-01 8.511839336372758469e-01
-1.045227050781250000e-02 1.140594482421875000e-02 -2.077636718750000000e-01 4.859396460697239933e-02 5.258908502168324617e-01 8.491627878457660428e-01
-9.521484375000000000e-03 1.145935058593750000e-02 -2.087402343750000000e-01 2.907713727537923273e-02 5.431337563469560425e-01 8.391425640523273444e-01
-8.544921875000000000e-03 1.145935058593750000e-02 -2.087402343750000000e-01 8.345129270003622500e-04 5.603218526346380735e-01 8.282745469035381891e-01
-7.564544677734375000e-03 1.145935058593750000e-02 -2.087402343750000000e-01 -2.340980575731602814e-02 5.606545541910826769e-01 8.277188241541950653e-01
-6.549835205078125000e-03 1.140594482421875000e-02 -2.077636718750000000e-01 -3.846229224713452327e-02 5.354241481147945514e-01 8.437070781323590118e-01
-5.577087402343750000e-03 1.140594482421875000e-02 -2.077636718750000000e-01 -9.981138362510702522e-03 5.347628036012807007e-01 8.449432648181097738e-01
-4.600524902343750000e-03 1.140594482421875000e-02 -2.077636718750000000e-01 1.882838643145636620e-02 5.325264193329720674e-01 8.462039379350533297e-01
-3.641128540039062500e-03 1.145935058593750000e-02 -2.087402343750000000e-01 6.190643145549881710e-02 5.397625721086116712e-01 8.395379440472845456e-01
-2.660751342773437500e-03 1.145935058593750000e-02 -2.087402343750000000e-01 6.068442364838288333e-02 5.155677943766389104e-01 8.546971686674008639e-01
-1.681327819824218750e-03 1.145935058593750000e-02 -2.087402343750000000e-01 6.737853122916639959e-02 4.768840549496402015e-01 8.763799014492451578e-01
-7.004737854003906250e-04 1.145935058593750000e-02 -2.087402343750000000e-01 6.086313351252352344e-02 4.142363296352106761e-01 9.081321171445186913e-01
2.796649932861328125e-04 1.145935058593750000e-02 -2.087402343750000000e-01 1.022781775419878691e-01 3.897178413901277172e-01 9.152372252596093771e-01
1.259803771972656250e-03 1.145935058593750000e-02 -2.087402343750000000e-01 1.739259147536556249e-01 3.397397131479490962e-01 9.242979516840083010e-01
2.241134643554687500e-03 1.145935058593750000e-02 -2.087402343750000000e-01 2.372370512453815528e-01 2.572279918098317464e-01 9.367776373002706380e-01
3.221511840820312500e-03 1.145935058593750000e-02 -2.087402343750000000e-01 2.894381529611697035e-01 1.820665338380480225e-01 9.397219444424108614e-01
4.219055175781250000e-03 1.151275634765625000e-02 -2.097167968750000000e-01 3.783329619725713244e-01 1.611610152531214868e-01 9.115323894671237825e-01
5.207061767578125000e-03 1.151275634765625000e-02 -2.097167968750000000e-01 4.313937497662376774e-01 5.899022026570800714e-02 9.002330734735466411e-01
6.221771240234375000e-03 1.156616210937500000e-02 -2.108154296875000000e-01 4.503045531074370000e-01 -3.938743005158959476e-02 8.920058518892364230e-01
7.209777832031250000e-03 1.156616210937500000e-02 -2.108154296875000000e-01 5.115813453384299159e-01 -7.870681100011929499e-02 8.556224430225716215e-01
8.239746093750000000e-03 1.161956787109375000e-02 -2.117919921875000000e-01 5.121606360456957274e-01 -2.231801118714073218e-01 8.293865929410328963e-01
9.277343750000000000e-03 1.168060302734375000e-02 -2.127685546875000000e-01 5.339283899743180184e-01 -3.141286228381409695e-01 7.850118997144218680e-01
1.027679443359375000e-02 1.168060302734375000e-02 -2.127685546875000000e-01 5.198867828589891493e-01 -3.278204177020732635e-01 7.888291999832208745e-01
1.132965087890625000e-02 1.173400878906250000e-02 -2.137451171875000000e-01 5.438655286991841420e-01 -4.143098832122376063e-01 7.297654468152209306e-01
