2.250671386718750000e-03 4.615783691406250000e-03 -2.097167968750000000e-01 5.961927762294592092e-01 -3.045283724044824947e-01 7.428436201331251043e-01
3.252029418945312500e-03 4.638671875000000000e-03 -2.108154296875000000e-01 6.056737413148163274e-01 -3.346234873797327980e-01 7.219324350488339759e-01
4.241943359375000000e-03 4.638671875000000000e-03 -2.108154296875000000e-01 5.980647256626081543e-01 -3.339568989325601422e-01 7.285543037917332487e-01
5.256652832031250000e-03 4.661560058593750000e-03 -2.117919921875000000e-01 6.417977699881990405e-01 -3.153263637204399839e-01 6.990457115103556607e-01
6.278991699218750000e-03 4.684448242187500000e-03 -2.127685546875000000e-01 6.919456220978869032e-01 -3.124619045553629904e-01 6.508293280585958351e-01
7.347106933593750000e-03 4.726409912109375000e-03 -2.147216796875000000e-01 7.546122391512688488e-01 -3.714249034835213625e-01 5.409287472443714551e-01
8.392333984375000000e-03 4.749298095703125000e-03 -2.158203125000000000e-01 6.718212306907258569e-01 -3.964087864072076695e-01 6.257126401570959340e-01
9.452819824218750000e-03 4.772186279296875000e-03 -2.167968750000000000e-01 5.436051560609841404e-01 -3.616196591539296290e-01 7.574461409349901864e-01
1.052093505859375000e-02 4.795074462890625000e-03 -2.177734375000000000e-01 4.821173372537027602e-01 -2.753678024153119464e-01 8.317063463220423225e-01
1.159667968750000000e-02 4.814147949218750000e-03 -2.187500000000000000e-01 4.617235030729428535e-01 -1.440443053237805138e-01 8.752500470230433205e-01
1.262664794921875000e-02 4.814147949218750000e-03 -2.187500000000000000e-01 4.144793159530333893e-01 -9.070234477167433973e-02 9.055274602683376362e-01
1.371002197265625000e-02 4.837036132812500000e-03 -2.198486328125000000e-01 4.137475669844914994e-01 5.809642525973840455e-02 9.085360511209521484e-01
1.474761962890625000e-02 4.837036132812500000e-03 -2.198486328125000000e-01 3.512115881179245780e-01 1.379621351747254698e-01 9.260760603912164823e-01
1.585388183593750000e-02 4.859924316406250000e-03 -2.208251953125000000e-01 2.939265849042307366e-01 1.692573835338724575e-01 9.407226481837266396e-01
1.689147949218750000e-02 4.859924316406250000e-03 -2.208251953125000000e-01 2.175099668882930493e-01 2.560010834194900720e-01 9.418879230525789570e-01
1.791381835937500000e-02 4.859924316406250000e-03 -2.208251953125000000e-01 1.687203193221140374e-01 3.342045112410693131e-01 9.272760098880817869e-01
1.895141601562500000e-02 4.859924316406250000e-03 -2.208251953125000000e-01 1.097577395766723002e-01 3.841373995485706239e-01 9.167288022480154508e-01
1.998901367187500000e-02 4.859924316406250000e-03 -2.208251953125000000e-01 7.046106207452057513e-02 4.027095683371968993e-01 9.126117697580933275e-01
2.102661132812500000e-02 4.859924316406250000e-03 -2.208251953125000000e-01 3.559715104011875603e-02 4.004504588284061306e-01 9.156267104349600228e-01
2.206420898437500000e-02 4.859924316406250000e-03 -2.208251953125000000e-01 -6.176092785056286685e-03 4.273229283045075211e-01 9.040779672258201227e-01
2.310180664062500000e-02 4.859924316406250000e-03 -2.208251953125000000e-01 6.120222589018686939e-03 4.383475230828668967e-01 8.987847305570874079e-01
2.413940429687500000e-02 4.859924316406250000e-03 -2.208251953125000000e-01 1.161396958628845184e-02 4.761182864489726385e-01 8.793045507782515369e-01
2.517700195312500000e-02 4.859924316406250000e-03 -2.208251953125000000e-01 3.514021593746934069e-02 4.981319546507337326e-01 8.663888970778119702e-01
2.621459960937500000e-02 4.859924316406250000e-03 -2.208251953125000000e-01 5.661058321767729190e-02 5.089476779160347908e-01 8.589339340203241413e-01
2.725219726562500000e-02 4.859924316406250000e-03 -2.208251953125000000e-01 6.109961275129632829e-02 5.154377702648372805e-01 8.547460104066320064e-01
2.842712402343750000e-02 4.882812500000000000e-03 -2.218017578125000000e-01 4.921999737478696679e-02 4.948782772078520464e-01 8.675672207997570107e-01
2.946472167968750000e-02 4.882812500000000000e-03 -2.218017578125000000e-01 3.402262239399513055e-02 4.994240424569645342e-01 8.656893709532189618e-01
3.050231933593750000e-02 4.882812500000000000e-03 -2.218017578125000000e-01 1.809936808847760134e-02 5.081941060074867123e-01 8.610523581606690513e-01
3.155517578125000000e-02 4.882812500000000000e-03 -2.218017578125000000e-01 -5.609232739169396284e-03 5.159988780574619183e-01 8.565708927762597513e-01
3.259277343750000000e-02 4.882812500000000000e-03 -2.218017578125000000e-01 -2.862928776125551328e-02 5.080144618400320722e-01 8.608726214973188018e-01
3.363037109375000000e-02 4.882812500000000000e-03 -2.218017578125000000e-01 -5.358525142826133653e-02 4.814430045654134460e-01 8.748378445085680521e-01
3.466796875000000000e-02 4.882812500000000000e-03 -2.218017578125000000e-01 -6.504665700851908205e-02 4.687047391802205420e-01 8.809567525605428440e-01
3.555297851562500000e-02 4.859924316406250000e-03 -2.208251953125000000e-01 -6.813877616118044211e-02 4.493177461154976293e-01 8.907697066071261771e-01
3.659057617187500000e-02 4.859924316406250000e-03 -2.208251953125000000e-01 -2.810124828735345234e-02 4.416801110922390916e-01 8.967324011711854670e-01
3.762817382812500000e-02 4.859924316406250000e-03 -2.208251953125000000e-01 -7.031387733205032332e-03 4.267425137886533548e-01 9.043458334685278155e-01
3.866577148437500000e-02 4.859924316406250000e-03 -2.208251953125000000e-01 3.710324679750898191e-02 4.234152378756115276e-01 9.051756102612478205e-01
3.988647460937500000e-02 4.882812500000000000e-03 -2.218017578125000000e-01 4.914472171432662795e-02 4.274680712534230098e-01 9.026936603225370614e-01
4.092407226562500000e-02 4.882812500000000000e-03 -2.218017578125000000e-01 4.084990449217380803e-02 4.284087129935217342e-01 9.026612099421433832e-01
4.196166992187500000e-02 4.882812500000000000e-03 -2.218017578125000000e-01 4.915453144465185137e-02 4.138469192494869664e-01 9.090184593649159872e-01
4.299926757812500000e-02 4.882812500000000000e-03 -2.218017578125000000e-01 4.083444899627902691e-02 3.986420821658783753e-01 9.161970520044383504e-01
4.403686523437500000e-02 4.882812500000000000e-03 -2.218017578125000000e-01 -4.417598896611728276e-02 -3.769012228416895316e-01 -9.251994110565056051e-01
4.507446289062500000e-02 4.882812500000000000e-03 -2.218017578125000000e-01 -2.889587988099311111e-02 -3.747249770700161187e-01 -9.266856099485835108e-01
4.614257812500000000e-02 4.882812500000000000e-03 -2.218017578125000000e-01 1.804973065736760127e-02 3.822664492956879823e-01 9.238758406658675870e-01
4.718017578125000000e-02 4.882812500000000000e-03 -2.218017578125000000e-01 9.013475366672430225e-03 4.114440881814243611e-01 9.113904320116438251e-01
4.821777343750000000e-02 4.882812500000000000e-03 -2.218017578125000000e-01 9.119382568417650284e-03 4.114196338211704718e-01 9.114004179108240455e-01
4.925537109375000000e-02 4.882812500000000000e-03 -2.218017578125000000e-01 -1.310346287687174163e-02 4.323045685044498709e-01 9.016324413589030806e-01
5.029296875000000000e-02 4.882812500000000000e-03 -2.218017578125000000e-01 -2.741498936958316340e-02 4.514614276215226374e-01 8.918693837820662607e-01
5.133056640625000000e-02 4.882812500000000000e-03 -2.218017578125000000e-01 -3.330300547068316269e-02 4.694566003938482335e-01 8.823272693129631250e-01
5.236816406250000000e-02 4.882812500000000000e-03 -2.218017578125000000e-01 -5.548411080458783007e-02 4.775992682229837638e-01 8.768240715451958156e-01
5.340576171875000000e-02 4.882812500000000000e-03 -2.218017578125000000e-01 -5.516598945796286069e-02 4.637279750045761317e-01 8.842584909432755769e-01
5.447387695312500000e-02 4.882812500000000000e-03 -2.218017578125000000e-01 -8.155411776440067706e-02 4.874831289765012010e-01 8.693153195699189206e-01
5.526733398437500000e-02 4.859924316406250000e-03 -2.208251953125000000e-01 7.694865107428372486e-02 -5.002733201286695408e-01 -8.624415981765293227e-01
-2.828979492187500000e-02 3.511428833007812500e-03 -2.027587890625000000e-01 -6.154941362584895326e-02 -2.076521331669198556e-01 -9.762644422867927663e-01
-2.734375000000000000e-02 3.511428833007812500e-03 -2.027587890625000000e-01 -7.352798217711757622e-02 -2.171246744017502339e-01 -9.733706958825579791e-01
-2.651977539062500000e-02 3.528594970703125000e-03 -2.037353515625000000e-01 8.995204689495005235e-02 2.638743572951434135e-01 9.603535561560042622e-01
-2.555847167968750000e-02 3.528594970703125000e-03 -2.037353515625000000e-01 7.313154574849645151e-02 2.719974424141394787e-01 9.595150693640003281e-01
-2.459716796875000000e-02 3.528594970703125000e-03 -2.037353515625000000e-01 5.461415007388836784e-02 3.240108444705187551e-01 9.444756573237915731e-01
-2.365112304687500000e-02 3.528594970703125000e-03 -2.037353515625000000e-01 3.689134710169083425e-02 3.756347465584217171e-01 9.260332422148854770e-01
-2.268981933593750000e-02 3.528594970703125000e-03 -2.037353515625000000e-01 3.082643347915376211e-02 4.010801661742534607e-01 9.155241292836517886e-01
-2.172851562500000000e-02 3.528594970703125000e-03 -2.037353515625000000e-01 1.972588298445628052e-02 4.234677106135372182e-01 9.056964102878033440e-01
-2.078247070312500000e-02 3.528594970703125000e-03 -2.037353515625000000e-01 -1.614543312372603880e-03 4.434898018382688600e-01 8.962779640911324730e-01
-1.982116699218750000e-02 3.528594970703125000e-03 -2.037353515625000000e-01 -1.546255144583596466e-03 4.434956771636567319e-01 8.962751772933229555e-01
-1.885986328125000000e-02 3.528594970703125000e-03 -2.037353515625000000e-01 -1.471986185904438759e-03 4.435015210217732040e-01 8.962724106587472983e-01
-1.789855957031250000e-02 3.528594970703125000e-03 -2.037353515625000000e-01 -1.394622085783803330e-03 4.435070961175348048e-01 8.962697756382448366e-01
-1.695251464843750000e-02 3.528594970703125000e-03 -2.037353515625000000e-01 -1.337897130823605856e-03 4.435120519067411449e-01 8.962674097861303979e-01
-1.599121093750000000e-02 3.528594970703125000e-03 -2.037353515625000000e-01 -1.264969904695126442e-03 4.435170077684877921e-01 8.962650632883261137e-01
-1.503753662109375000e-02 3.528594970703125000e-03 -2.037353515625000000e-01 -1.177972940230259105e-03 4.435213373189274000e-01 8.962630393598647327e-01
-1.407623291015625000e-02 3.528594970703125000e-03 -2.037353515625000000e-01 -1.111715214674793666e-03 4.435262121286473458e-01 8.962607116481764447e-01
-1.312255859375000000e-02 3.528594970703125000e-03 -2.037353515625000000e-01 3.025477383710101914e-02 4.415328378072400084e-01 8.967348559066672387e-01
-1.216125488281250000e-02 3.528594970703125000e-03 -2.037353515625000000e-01 7.368107666576152737e-02 4.432036594650642924e-01 8.933877182825771257e-01
-1.120758056640625000e-02 3.528594970703125000e-03 -2.037353515625000000e-01 9.517903644087580273e-02 4.400290633449146505e-01 8.929251785194455282e-01
-1.025390625000000000e-02 3.528594970703125000e-03 -2.037353515625000000e-01 1.163838715696535880e-01 4.206903250255609739e-01 8.997079775506863220e-01
-9.292602539062500000e-03 3.528594970703125000e-03 -2.037353515625000000e-01 1.468532897189030739e-01 3.719749690595732794e-01 9.165526355272050063e-01
-8.338928222656250000e-03 3.528594970703125000e-03 -2.037353515625000000e-01 1.354640054909246882e-01 3.160706415249986412e-01 9.390148309703796325e-01
-7.381439208984375000e-03 3.528594970703125000e-03 -2.037353515625000000e-01 1.745423710484013957e-01 2.593194626270663439e-01 9.498886129497562392e-01
-6.454467773437500000e-03 3.545761108398437500e-03 -2.047119140625000000e-01 2.959484767948731276e-01 2.386119048567454382e-01 9.249210009203110427e-01
-5.493164062500000000e-03 3.545761108398437500e-03 -2.047119140625000000e-01 3.573413430065380814e-01 1.854942701389757087e-01 9.153682539414901287e-01
-4.531860351562500000e-03 3.545761108398437500e-03 -2.047119140625000000e-01 4.091510520153878172e-01 7.167396240459909806e-02 9.096473271262470739e-01
-3.589630126953125000e-03 3.562927246093750000e-03 -2.056884765625000000e-01 4.289939317921334649e-01 -3.938389903706244338e-02 9.024484001770765040e-01
-2.622604370117187500e-03 3.562927246093750000e-03 -2.056884765625000000e-01 5.262048133120380555e-01 -9.900603956687455132e-02 8.445746258185392596e-01
-1.665115356445312500e-03 3.580093383789062500e-03 -2.067871093750000000e-01 5.562849429855160066e-01 -1.864251894249834007e-01 8.098102931893742529e-01
-6.971359252929687500e-04 3.597259521484375000e-03 -2.077636718750000000e-01 6.078429354195805656e-01 -2.355031740088932013e-01 7.583305485685281067e-01
2.796649932861328125e-04 3.614425659179687500e-03 -2.087402343750000000e-01 5.829932550766268040e-01 -2.984458986439017525e-01 7.556777819400231078e-01
1.259803771972656250e-03 3.614425659179687500e-03 -2.087402343750000000e-01 5.944029533248320618e-01 -3.197645692406567153e-01 7.378588952754141506e-01
2.250671386718750000e-03 3.633499145507812500e-03 -2.097167968750000000e-01 5.966803085525554939e-01 -3.446098396796272167e-01 7.247183368603341558e-01
3.252029418945312500e-03 3.650665283203125000e-03 -2.108154296875000000e-01 6.117423978426571596e-01 -3.498976482549108202e-01 7.094666126234544512e-01
4.261016845703125000e-03 3.667831420898437500e-03 -2.117919921875000000e-01 5.843775312951525747e-01 -3.660817818175597371e-01 7.242147678269640343e-01
5.279541015625000000e-03 3.684997558593750000e-03 -2.127685546875000000e-01 6.556611975154181815e-01 -3.713754723471528463e-01 6.574105662457646604e-01
6.278991699218750000e-03 3.684997558593750000e-03 -2.127685546875000000e-01 6.803527989777190532e-01 -3.545574993745267411e-01 6.414117621001862446e-01
7.415771484375000000e-03 3.753662109375000000e-03 -2.167968750000000000e-01 6.887027781335108845e-01 -2.872493787445580815e-01 6.657148622361149792e-01
8.430480957031250000e-03 3.753662109375000000e-03 -2.167968750000000000e-01 5.856309638700059050e-01 -2.743351087052035564e-01 7.627428284083646037e-01
9.498596191406250000e-03 3.770828247070312500e-03 -2.177734375000000000e-01 4.499783269744512260e-01 -1.856835861308703262e-01 8.735222441900684087e-01
1.052093505859375000e-02 3.770828247070312500e-03 -2.177734375000000000e-01 4.127867041119615554e-01 -1.356694964855160168e-01 9.006669332398909988e-01
1.159667968750000000e-02 3.789901733398437500e-03 -2.187500000000000000e-01 4.194968543298309149e-01 1.849854217583211946e-02 9.075682856649111008e-01
1.262664794921875000e-02 3.789901733398437500e-03 -2.187500000000000000e-01 3.737532125478482681e-01 5.983006190069835306e-02 9.255965102587203619e-01
1.371002197265625000e-02 3.807067871093750000e-03 -2.198486328125000000e-01 2.897288657061879436e-01 1.593295045514300512e-01 9.437538309093115307e-01
1.474761962890625000e-02 3.807067871093750000e-03 -2.198486328125000000e-01 2.553493588480128529e-01 2.650498632575088442e-01 9.298092680346247141e-01
1.577758789062500000e-02 3.807067871093750000e-03 -2.198486328125000000e-01 1.841334460873366996e-01 3.344050467704136609e-01 9.242662704688943132e-01
1.679992675781250000e-02 3.807067871093750000e-03 -2.198486328125000000e-01 1.300411182115415176e-01 3.941652025975408424e-01 9.097928888684124749e-01
1.783752441406250000e-02 3.807067871093750000e-03 -2.198486328125000000e-01 1.006355951290880124e-01 4.744100308141988576e-01 8.745327893543416442e-01
1.895141601562500000e-02 3.824234008789062500e-03 -2.208251953125000000e-01 9.287597275885378645e-02 4.936548136880504756e-01 8.646843230952627746e-01
1.998901367187500000e-02 3.824234008789062500e-03 -2.208251953125000000e-01 7.409848950209617369e-02 5.068107037437261653e-01 8.588668839955914125e-01
2.102661132812500000e-02 3.824234008789062500e-03 -2.208251953125000000e-01 3.681321920390680930e-02 5.184411527964283284e-01 8.543205241470882561e-01
2.206420898437500000e-02 3.824234008789062500e-03 -2.208251953125000000e-01 8.053267013756621948e-03 5.139382844591121602e-01 8.577893591422254271e-01
2.310180664062500000e-02 3.824234008789062500e-03 -2.208251953125000000e-01 8.199075831560653782e-03 5.139259293199488488e-01 8.577953802207931577e-01
2.413940429687500000e-02 3.824234008789062500e-03 -2.208251953125000000e-01 8.250427005178981657e-03 5.139091302931598770e-01 8.578049523379777108e-01
2.517700195312500000e-02 3.824234008789062500e-03 -2.208251953125000000e-01 8.426940635196734572e-03 5.389782762608251732e-01 8.422775103197522872e-01
2.621459960937500000e-02 3.824234008789062500e-03 -2.208251953125000000e-01 5.208162544934043930e-02 5.520175105114930592e-01 8.322044054072583741e-01
2.725219726562500000e-02 3.824234008789062500e-03 -2.208251953125000000e-01 6.745720241572283893e-02 5.358501958465423654e-01 8.416139812606884263e-01
2.828979492187500000e-02 3.824234008789062500e-03 -2.208251953125000000e-01 6.637215239927791999e-02 5.193266127437269342e-01 8.519944874716115502e-01
2.932739257812500000e-02 3.824234008789062500e-03 -2.208251953125000000e-01 4.797757691104937577e-02 5.022479464895961421e-01 8.633916564113460757e-01
3.036499023437500000e-02 3.824234008789062500e-03 -2.208251953125000000e-01 1.720795518617319539e-02 5.020245950700051862e-01 8.646821336324163054e-01
3.140258789062500000e-02 3.824234008789062500e-03 -2.208251953125000000e-01 -7.475679612693362022e-03 5.135331993799491235e-01 8.580371596550594449e-01
3.244018554687500000e-02 3.824234008789062500e-03 -2.208251953125000000e-01 -3.295063893932032723e-02 5.033473151490243103e-01 8.634556941301385624e-01
3.347778320312500000e-02 3.824234008789062500e-03 -2.208251953125000000e-01 -5.059534067784259015e-02 4.918933096676270100e-01 8.691841481561436433e-01
3.451538085937500000e-02 3.824234008789062500e-03 -2.208251953125000000e-01 -5.966826184047080428e-02 4.799128841871675433e-01 8.752847091775859401e-01
3.555297851562500000e-02 3.824234008789062500e-03 -2.208251953125000000e-01 -5.977347316806839311e-02 4.678494939781103756e-01 8.817845444834312429e-01
3.659057617187500000e-02 3.824234008789062500e-03 -2.208251953125000000e-01 -4.551202078481144525e-02 4.427087155501377436e-01 8.955097147100248289e-01
3.762817382812500000e-02 3.824234008789062500e-03 -2.208251953125000000e-01 -4.638876065908216495e-03 4.447441342009102461e-01 8.956456531032391810e-01
3.866577148437500000e-02 3.824234008789062500e-03 -2.208251953125000000e-01 3.483824655234524226e-02 4.441426453663850360e-01 8.952785081437548698e-01
3.970336914062500000e-02 3.824234008789062500e-03 -2.208251953125000000e-01 3.608347685380761116e-02 4.547912142949229186e-01 8.898668069426401983e-01
4.074096679687500000e-02 3.824234008789062500e-03 -2.208251953125000000e-01 5.587343677156091093e-02 4.526187076159806644e-01 8.899519450955617472e-01
4.177856445312500000e-02 3.824234008789062500e-03 -2.208251953125000000e-01 5.600315121059665918e-02 4.506459829926323657e-01 8.909443557636398392e-01
4.281616210937500000e-02 3.824234008789062500e-03 -2.208251953125000000e-01 3.650508085845057676e-02 4.488521221622764901e-01 8.928600962647725847e-01
4.385375976562500000e-02 3.824234008789062500e-03 -2.208251953125000000e-01 4.173024921808154986e-02 4.371293900149567091e-01 8.984300098980156912e-01
4.489135742187500000e-02 3.824234008789062500e-03 -2.208251953125000000e-01 3.944386327401255138e-02 4.535358261139614822e-01 8.903647769769125198e-01
4.592895507812500000e-02 3.824234008789062500e-03 -2.208251953125000000e-01 2.228407371719800731e-02 4.414047912279038255e-01 8.970313430084910777e-01
4.696655273437500000e-02 3.824234008789062500e-03 -2.208251953125000000e-01 -4.647493143032000243e-03 4.282861494135727365e-01 9.036312162757438315e-01
4.800415039062500000e-02 3.824234008789062500e-03 -2.208251953125000000e-01 -4.592133161145773787e-03 4.282952922351749292e-01 9.036271659053949357e-01
4.904174804687500000e-02 3.824234008789062500e-03 -2.208251953125000000e-01 -3.168052654332242923e-02 4.431324447175635783e-01 8.958961885601329778e-01
5.007934570312500000e-02 3.824234008789062500e-03 -2.208251953125000000e-01 -4.989697276377984964e-02 4.565204616183493047e-01 8.883126477951217570e-01
5.111694335937500000e-02 3.824234008789062500e-03 -2.208251953125000000e-01 -5.894635470641191449e-02 4.691819144887714454e-01 8.811320323217611827e-01
5.215454101562500000e-02 3.824234008789062500e-03 -2.208251953125000000e-01 -6.214718684192548775e-02 4.806785048151042683e-01 8.746918898539933762e-01
5.319213867187500000e-02 3.824234008789062500e-03 -2.208251953125000000e-01 -6.124956781042084630e-02 4.839894194237079894e-01 8.729276787506161650e-01
5.422973632812500000e-02 3.824234008789062500e-03 -2.208251953125000000e-01 -8.666027310255634830e-02 5.092107827450179647e-01 8.562677010152821566e-01
5.526733398437500000e-02 3.824234008789062500e-03 -2.208251953125000000e-01 -8.666027310255634830e-02 5.092107827450179647e-01 8.562677010152821566e-01
-2.828979492187500000e-02 2.557754516601562500e-03 -2.027587890625000000e-01 -4.350976242218676515e-02 -2.400814075446370266e-01 -9.697772003534375074e-01
-2.734375000000000000e-02 2.557754516601562500e-03 -2.027587890625000000e-01 -4.350976242218676515e-02 -2.400814075446370266e-01 -9.697772003534375074e-01
-2.638244628906250000e-02 2.557754516601562500e-03 -2.027587890625000000e-01 3.987491304858956087e-02 2.257734495342672010e-01 9.733634166100373353e-01
-2.543640136718750000e-02 2.557754516601562500e-03 -2.027587890625000000e-01 -1.077072217991049442e-02 2.947915252977769685e-01 9.555008886214252373e-01
-2.447509765625000000e-02 2.557754516601562500e-03 -2.027587890625000000e-01 -3.644716938291447939e-02 3.750434984591833332e-01 9.262904393911607359e-01
-2.352905273437500000e-02 2.557754516601562500e-03 -2.027587890625000000e-01 -3.589631908836335428e-02 3.996495123801679927e-01 9.159649128270145324e-01
-2.258300781250000000e-02 2.557754516601562500e-03 -2.027587890625000000e-01 -2.418402461664491410e-02 4.234218594759203702e-01 9.056097735069422727e-01
-2.162170410156250000e-02 2.557754516601562500e-03 -2.027587890625000000e-01 -1.804940318101162918e-03 4.458295233073880093e-01 8.951160697574116476e-01
-2.067565917968750000e-02 2.557754516601562500e-03 -2.027587890625000000e-01 -1.713322615674900797e-03 4.458383538927056522e-01 8.951118515156957223e-01
-1.971435546875000000e-02 2.557754516601562500e-03 -2.027587890625000000e-01 -1.608156895774450834e-03 4.458470255189663778e-01 8.951077274089911384e-01
-1.876831054687500000e-02 2.557754516601562500e-03 -2.027587890625000000e-01 -1.525231196469471273e-03 4.458531768396102879e-01 8.951048085960796596e-01
-1.782226562500000000e-02 2.557754516601562500e-03 -2.027587890625000000e-01 6.724562765931614908e-03 4.602402539862152087e-01 8.877689388947503923e-01
-1.686096191406250000e-02 2.557754516601562500e-03 -2.027587890625000000e-01 6.810524566373603490e-03 4.602250509434203662e-01 8.877761650547152383e-01
-1.591491699218750000e-02 2.557754516601562500e-03 -2.027587890625000000e-01 6.854352052982299291e-03 4.602106504038745438e-01 8.877832928777025234e-01
-1.496124267578125000e-02 2.557754516601562500e-03 -2.027587890625000000e-01 6.923394892658024137e-03 4.601970931783460617e-01 8.877897848214749699e-01
-1.400756835937500000e-02 2.557754516601562500e-03 -2.027587890625000000e-01 -1.124477484785468308e-03 4.458804743145343696e-01 8.950918043281549386e-01
-1.305389404296875000e-02 2.557754516601562500e-03 -2.027587890625000000e-01 5.351048525060464467e-02 4.288185444150948711e-01 9.018044599213093093e-01
-1.210784912109375000e-02 2.557754516601562500e-03 -2.027587890625000000e-01 9.355014274020663489e-02 4.176247409555903789e-01 9.037908754435746150e-01
-1.115417480468750000e-02 2.557754516601562500e-03 -2.027587890625000000e-01 1.659207958470296229e-01 4.002751061700656199e-01 9.012492046520934608e-01
-1.025390625000000000e-02 2.571105957031250000e-03 -2.037353515625000000e-01 1.603355297754847641e-01 3.480727546962972818e-01 9.236546298967737156e-01
-9.292602539062500000e-03 2.571105957031250000e-03 -2.037353515625000000e-01 1.715643750476836815e-01 3.390712764141914359e-01 9.249845051271664564e-01
-8.338928222656250000e-03 2.571105957031250000e-03 -2.037353515625000000e-01 2.043511066699042755e-01 3.164033771427704478e-01 9.263528097520054017e-01
-7.381439208984375000e-03 2.571105957031250000e-03 -2.037353515625000000e-01 2.318290281076884340e-01 2.274240524375778782e-01 9.457978653494172327e-01
-6.423950195312500000e-03 2.571105957031250000e-03 -2.037353515625000000e-01 3.255740794744240718e-01 1.023581293623934685e-01 9.399597502700915985e-01
-5.493164062500000000e-03 2.584457397460937500e-03 -2.047119140625000000e-01 4.285926997634935676e-01 8.430482802572139556e-02 8.995559980796045130e-01
-4.531860351562500000e-03 2.584457397460937500e-03 -2.047119140625000000e-01 5.177228878501558551e-01 -3.519641943026784875e-02 8.548240891875846792e-01
-3.589630126953125000e-03 2.595901489257812500e-03 -2.056884765625000000e-01 5.230889373292360034e-01 -1.554417352406605723e-01 8.379831923070669708e-01
-2.635955810546875000e-03 2.609252929687500000e-03 -2.067871093750000000e-01 5.906365318379905860e-01 -2.242775004536042283e-01 7.751439157012547376e-01
-1.665115356445312500e-03 2.609252929687500000e-03 -2.067871093750000000e-01 5.896525407374043626e-01 -2.806278752300312984e-01 7.573360395793942157e-01
-6.971359252929687500e-04 2.622604370117187500e-03 -2.077636718750000000e-01 5.929823350013713190e-01 -3.148739528428517453e-01 7.410980665184864202e-01
2.796649932861328125e-04 2.634048461914062500e-03 -2.087402343750000000e-01 5.938701528395258222e-01 -3.279558966176104318e-01 7.346857637385506568e-01
1.266479492187500000e-03 2.647399902343750000e-03 -2.097167968750000000e-01 6.034426947723551260e-01 -3.526587754739877179e-01 7.151843833635251890e-01
2.262115478515625000e-03 2.660751342773437500e-03 -2.108154296875000000e-01 5.982894898972059838e-01 -3.719603920689544263e-01 7.097148392209725598e-01
3.267288208007812500e-03 2.672195434570312500e-03 -2.117919921875000000e-01 5.983808883534175171e-01 -3.701074485038516326e-01 7.106059308895075199e-01
4.261016845703125000e-03 2.672195434570312500e-03 -2.117919921875000000e-01 5.938446906224711386e-01 -3.801667439127418557e-01 7.090992386417330762e-01
5.279541015625000000e-03 2.685546875000000000e-03 -2.127685546875000000e-01 6.451580100876409540e-01 -3.726718182722102424e-01 6.669983942150385925e-01
6.309509277343750000e-03 2.696990966796875000e-03 -2.137451171875000000e-01 7.311916717014258493e-01 -3.615319018695220543e-01 5.784923708788912711e-01
7.415771484375000000e-03 2.735137939453125000e-03 -2.167968750000000000e-01 5.954765992868507052e-01 -1.517415781343018910e-01 7.889119806208287899e-01
8.476257324218750000e-03 2.748489379882812500e-03 -2.177734375000000000e-01 4.652321228054306368e-01 -8.382869017410611578e-02 8.812104303817827056e-01
9.498596191406250000e-03 2.748489379882812500e-03 -2.177734375000000000e-01 4.324881715770831914e-01 -2.998697420249680709e-02 9.011408118735328987e-01
1.056671142578125000e-02 2.761840820312500000e-03 -2.187500000000000000e-01 3.306841066962066256e-01 2.570258384961444237e-02 9.433914345392294676e-01
1.159667968750000000e-02 2.761840820312500000e-03 -2.187500000000000000e-01 3.032867792276945362e-01 1.020438084203050405e-01 9.474197542318671950e-01
1.262664794921875000e-02 2.761840820312500000e-03 -2.187500000000000000e-01 3.011661905525170879e-01 1.959710475570709265e-01 9.332171634659689463e-01
1.364898681640625000e-02 2.761840820312500000e-03 -2.187500000000000000e-01 2.169981842874550149e-01 2.584505412013231029e-01 9.413368715654831798e-01
1.474761962890625000e-02 2.773284912109375000e-03 -2.198486328125000000e-01 1.737481489726649952e-01 3.179689844070139881e-01 9.320446908189246038e-01
1.577758789062500000e-02 2.773284912109375000e-03 -2.198486328125000000e-01 1.029300664154503969e-01 3.865327916607556036e-01 9.165139401005605313e-01
1.679992675781250000e-02 2.773284912109375000e-03 -2.198486328125000000e-01 7.347651942072006004e-02 4.462730099504647052e-01 8.918753285541477505e-01
1.783752441406250000e-02 2.773284912109375000e-03 -2.198486328125000000e-01 3.157990060706316465e-02 4.728153955132927688e-01 8.805954301739572498e-01
1.887512207031250000e-02 2.773284912109375000e-03 -2.198486328125000000e-01 3.817600000422387979e-02 4.847109320194797344e-01 8.738408924995927363e-01
1.989746093750000000e-02 2.773284912109375000e-03 -2.198486328125000000e-01 3.481463807579789765e-02 5.198455994853947715e-01 8.535505220379880909e-01
2.093505859375000000e-02 2.773284912109375000e-03 -2.198486328125000000e-01 1.720001656287496045e-02 5.306747512936603739e-01 8.474010076520139823e-01
2.197265625000000000e-02 2.773284912109375000e-03 -2.198486328125000000e-01 -8.841746127108886938e-03 5.402103414539313198e-01 8.414835770896844647e-01
2.299499511718750000e-02 2.773284912109375000e-03 -2.198486328125000000e-01 -8.145730254179020177e-03 5.406598508278820381e-01 8.412018620886418940e-01
2.403259277343750000e-02 2.773284912109375000e-03 -2.198486328125000000e-01 -8.696170108670811527e-03 5.402527777386366692e-01 8.414578496699214316e-01
2.507019042968750000e-02 2.773284912109375000e-03 -2.198486328125000000e-01 1.890055193228173946e-02 5.283845054809350739e-01 8.487947829153539292e-01
2.609252929687500000e-02 2.773284912109375000e-03 -2.198486328125000000e-01 5.316648364511143005e-02 5.287463831445239348e-01 8.471130900466584679e-01
2.713012695312500000e-02 2.773284912109375000e-03 -2.198486328125000000e-01 7.122966357679814953e-02 5.390873528887196731e-01 8.392324832739550544e-01
2.816772460937500000e-02 2.773284912109375000e-03 -2.198486328125000000e-01 7.237792834442449696e-02 5.494139071866706026e-01 8.324096311783314439e-01
2.919006347656250000e-02 2.773284912109375000e-03 -2.198486328125000000e-01 5.697806712310110600e-02 5.601517489624623369e-01 8.264281686881261857e-01
3.022766113281250000e-02 2.773284912109375000e-03 -2.198486328125000000e-01 2.505502137312911812e-02 5.699379041911362132e-01 8.213056868609929229e-01
3.125000000000000000e-02 2.773284912109375000e-03 -2.198486328125000000e-01 -1.672967957153150172e-03 5.575689484991518396e-01 8.301289471207254911e-01
3.228759765625000000e-02 2.773284912109375000e-03 -2.198486328125000000e-01 -1.632419102251406315e-03 5.575726358001308336e-01 8.301265512045552519e-01
3.332519531250000000e-02 2.773284912109375000e-03 -2.198486328125000000e-01 -1.415239087821957946e-02 5.442913261757146293e-01 8.387768845660400485e-01
3.436279296875000000e-02 2.773284912109375000e-03 -2.198486328125000000e-01 -2.469384962656427651e-02 5.235966476650329993e-01 8.516083397575201497e-01
3.536987304687500000e-02 2.773284912109375000e-03 -2.198486328125000000e-01 -2.699846596246887123e-02 5.007318767494076672e-01 8.651812933961814389e-01
3.640747070312500000e-02 2.773284912109375000e-03 -2.198486328125000000e-01 -2.050294017304313612e-02 4.757573588037438128e-01 8.793375716915242668e-01
3.744506835937500000e-02 2.773284912109375000e-03 -2.198486328125000000e-01 7.631419380798252702e-03 4.594730968002406768e-01 8.881589017484602389e-01
3.848266601562500000e-02 2.773284912109375000e-03 -2.198486328125000000e-01 1.817641830153204213e-02 4.874836540966359655e-01 8.729428989380227932e-01
3.952026367187500000e-02 2.773284912109375000e-03 -2.198486328125000000e-01 1.998758830944636147e-02 5.129695961688655048e-01 8.581740439560747724e-01
4.055786132812500000e-02 2.773284912109375000e-03 -2.198486328125000000e-01 3.802978748040750784e-02 5.367271988117122694e-01 8.428983623901089572e-01
4.156494140625000000e-02 2.773284912109375000e-03 -2.198486328125000000e-01 3.929931007514803759e-02 5.581851624092056818e-01 8.287851885101626959e-01
4.260253906250000000e-02 2.773284912109375000e-03 -2.198486328125000000e-01 6.176417530460130700e-02 5.492391794764296398e-01 8.333795716100801387e-01
4.385375976562500000e-02 2.786636352539062500e-03 -2.208251953125000000e-01 5.408600464079490328e-02 5.310978517030152668e-01 8.455825069255146209e-01
4.489135742187500000e-02 2.786636352539062500e-03 -2.208251953125000000e-01 4.186303293266166459e-02 5.286337822169124845e-01 8.478170856810570699e-01
4.592895507812500000e-02 2.786636352539062500e-03 -2.208251953125000000e-01 1.914867849258561697e-02 5.255248521956391583e-01 8.505627301009250907e-01
4.696655273437500000e-02 2.786636352539062500e-03 -2.208251953125000000e-01 -7.030921663433971965e-05 5.387728095748457458e-01 8.424510993045477569e-01
4.800415039062500000e-02 2.786636352539062500e-03 -2.208251953125000000e-01 6.178896760386709014e-06 5.387730706461113517e-01 8.424509352528379846e-01
4.904174804687500000e-02 2.786636352539062500e-03 -2.208251953125000000e-01 -2.520773243752287562e-02 5.408249612190513256e-01 8.407573559284330367e-01
5.007934570312500000e-02 2.786636352539062500e-03 -2.208251953125000000e-01 -4.179449247642069709e-02 5.422256281814544776e-01 8.391928196438916965e-01
5.111694335937500000e-02 2.786636352539062500e-03 -2.208251953125000000e-01 -4.934119423999279441e-02 5.437164743711319081e-01 8.378173082769283520e-01
5.191040039062500000e-02 2.773284912109375000e-03 -2.198486328125000000e-01 -5.208478171850826344e-02 5.495691305238070701e-01 8.338230905225892942e-01
5.294799804687500000e-02 2.773284912109375000e-03 -2.198486328125000000e-01 -7.622108327305494868e-02 5.562904047140894148e-01 8.274849437226736715e-01
5.395507812500000000e-02 2.773284912109375000e-03 -2.198486328125000000e-01 9.481007350934457512e-02 -5.468728440336233509e-01 -8.318299961048105651e-01
5.499267578125000000e-02 2.773284912109375000e-03 -2.198486328125000000e-01 9.452418037629081726e-02 -5.454712891357754723e-01 -8.327822356731352516e-01
-2.828979492187500000e-02 1.606941223144531250e-03 -2.027587890625000000e-01 -3.423198769413327708e-02 -2.620116251912588123e-01 -9.644574014870453960e-01
-2.734375000000000000e-02 1.606941223144531250e-03 -2.027587890625000000e-01 8.926409771405331706e-03 2.793814490722653643e-01 9.601387009817249352e-01
-2.638244628906250000e-02 1.606941223144531250e-03 -2.027587890625000000e-01 -2.838737324770607140e-03 2.710857916844168769e-01 9.625510039043302379e-01
-2.543640136718750000e-02 1.606941223144531250e-03 -2.027587890625000000e-01 -4.651576488180673291e-02 2.970099869708855977e-01 9.537407148995028505e-01
-2.447509765625000000e-02 1.606941223144531250e-03 -2.027587890625000000e-01 -5.997815113781818086e-02 3.702654169488546754e-01 9.269876711142277514e-01
-2.352905273437500000e-02 1.606941223144531250e-03 -2.027587890625000000e-01 -4.929341685639717502e-02 4.207516599921311551e-01 9.058356361219663810e-01
-2.258300781250000000e-02 1.606941223144531250e-03 -2.027587890625000000e-01 -3.336609845210234543e-02 4.184802249129400131e-01 9.076128055679358875e-01
-2.162170410156250000e-02 1.606941223144531250e-03 -2.027587890625000000e-01 -2.190824776753552347e-02 4.495234509582299309e-01 8.929998296295247329e-01
-2.067565917968750000e-02 1.606941223144531250e-03 -2.027587890625000000e-01 -1.677271150391726126e-03 4.469202964323655269e-01 8.945722080404100440e-01
-1.971435546875000000e-02 1.606941223144531250e-03 -2.027587890625000000e-01 1.680359769993633500e-03 4.571427943572414221e-01 8.893917258206848198e-01
-1.876831054687500000e-02 1.606941223144531250e-03 -2.027587890625000000e-01 -1.601697513231531422e-02 4.924535022818427588e-01 8.701913609074487521e-01
-1.782226562500000000e-02 1.606941223144531250e-03 -2.027587890625000000e-01 -2.140247279454526863e-02 5.233920442260843187e-01 8.518231636901636428e-01
-1.686096191406250000e-02 1.606941223144531250e-03 -2.027587890625000000e-01 -1.515757329409614558e-02 5.505284418570354221e-01 8.346787901212650018e-01
-1.591491699218750000e-02 1.606941223144531250e-03 -2.027587890625000000e-01 1.055913692239564793e-02 5.501730662347893430e-01 8.349838931484033777e-01
-1.496124267578125000e-02 1.606941223144531250e-03 -2.027587890625000000e-01 2.192193027651709314e-02 5.229131892444650598e-01 8.521039992202440461e-01
-1.400756835937500000e-02 1.606941223144531250e-03 -2.027587890625000000e-01 4.062991550726356010e-02 4.843007332832031109e-01 8.739576704321694312e-01
-1.305389404296875000e-02 1.606941223144531250e-03 -2.027587890625000000e-01 6.276476424002526422e-02 4.433405722844883101e-01 8.941530748906232340e-01
-1.210784912109375000e-02 1.606941223144531250e-03 -2.027587890625000000e-01 1.059001344863340632e-01 4.081821235179423080e-01 9.067372913673285018e-01
-1.115417480468750000e-02 1.606941223144531250e-03 -2.027587890625000000e-01 1.686746403913722825e-01 3.736946755484570337e-01 9.120861555552605138e-01
-1.020050048828125000e-02 1.606941223144531250e-03 -2.027587890625000000e-01 2.210515877161547682e-01 3.284011139025739823e-01 9.183076303481941816e-01
-9.246826171875000000e-03 1.606941223144531250e-03 -2.027587890625000000e-01 2.439468657267193086e-01 2.426472366307745321e-01 9.389420883406809359e-01
-8.338928222656250000e-03 1.614570617675781250e-03 -2.037353515625000000e-01 2.926894146927057627e-01 1.547676083910234091e-01 9.435994350993244240e-01
-7.381439208984375000e-03 1.614570617675781250e-03 -2.037353515625000000e-01 3.432390207991330433e-01 1.093480904625352551e-01 9.328611738694291278e-01
-6.423950195312500000e-03 1.614570617675781250e-03 -2.037353515625000000e-01 4.235650414875350434e-01 1.891849297275847996e-02 9.056681214734801921e-01
-5.493164062500000000e-03 1.622200012207031250e-03 -2.047119140625000000e-01 4.880375815888383650e-01 -8.082512880486074358e-02 8.690722740431864324e-01
-4.554748535156250000e-03 1.630783081054687500e-03 -2.056884765625000000e-01 5.836647022298766530e-01 -1.730395656149828210e-01 7.933428162545416162e-01
-3.589630126953125000e-03 1.630783081054687500e-03 -2.056884765625000000e-01 5.925764679899101495e-01 -2.333866652966908317e-01 7.709629005641537303e-01
-2.635955810546875000e-03 1.638412475585937500e-03 -2.067871093750000000e-01 6.013261903785025453e-01 -3.212338132505421773e-01 7.315843423621044561e-01
-1.672744750976562500e-03 1.646041870117187500e-03 -2.077636718750000000e-01 6.127574905007860950e-01 -3.332692944898184018e-01 7.165611175506508834e-01
-7.004737854003906250e-04 1.654624938964843750e-03 -2.087402343750000000e-01 5.948194611714883173e-01 -3.472220419434043359e-01 7.250011463441372594e-01
2.810955047607421875e-04 1.662254333496093750e-03 -2.097167968750000000e-01 6.031986194466640860e-01 -3.428690308721690783e-01 7.201334967673828080e-01
1.266479492187500000e-03 1.662254333496093750e-03 -2.097167968750000000e-01 6.105828023623727230e-01 -3.565963923555789949e-01 7.071263355428771824e-01
2.262115478515625000e-03 1.669883728027343750e-03 -2.108154296875000000e-01 5.989225209487172297e-01 -3.685148839979797697e-01 7.109772107264683561e-01
3.267288208007812500e-03 1.678466796875000000e-03 -2.117919921875000000e-01 6.186320783370439225e-01 -3.832181863217508089e-01 6.858849563335365218e-01
4.280090332031250000e-03 1.686096191406250000e-03 -2.127685546875000000e-01 6.165173101095964281e-01 -3.874261327464252336e-01 6.854249762011718206e-01
5.306243896484375000e-03 1.694679260253906250e-03 -2.137451171875000000e-01 6.972159191595007632e-01 -3.479878357819509160e-01 6.267331395565152174e-01
6.370544433593750000e-03 1.709938049316406250e-03 -2.158203125000000000e-01 7.332481793991385555e-01 -1.912776135106409592e-01 6.525028597466242530e-01
7.415771484375000000e-03 1.718521118164062500e-03 -2.167968750000000000e-01 5.831852616646137077e-01 -6.050703675892749045e-02 8.100826186752990710e-01
8.476257324218750000e-03 1.726150512695312500e-03 -2.177734375000000000e-01 4.373054259814768141e-01 2.691854200388544768e-02 8.989100936709656375e-01
9.498596191406250000e-03 1.726150512695312500e-03 -2.177734375000000000e-01 3.418017831510851701e-01 9.087423343154912847e-02 9.353680637764829608e-01
1.052093505859375000e-02 1.726150512695312500e-03 -2.177734375000000000e-01 2.931597418581688430e-01 2.052366382979171067e-01 9.337747523111886716e-01
1.159667968750000000e-02 1.733779907226562500e-03 -2.187500000000000000e-01 2.327337584817193439e-01 1.747821381574096444e-01 9.567059118893834757e-01
1.262664794921875000e-02 1.733779907226562500e-03 -2.187500000000000000e-01 2.151208782549007270e-01 2.639880538649584385e-01 9.402304585342000642e-01
1.364898681640625000e-02 1.733779907226562500e-03 -2.187500000000000000e-01 1.691226346041217743e-01 3.442716226213244912e-01 9.235120921364490254e-01
1.467895507812500000e-02 1.733779907226562500e-03 -2.187500000000000000e-01 1.082921445637808899e-01 3.985600052816839489e-01 9.107264867212555570e-01
1.570129394531250000e-02 1.733779907226562500e-03 -2.187500000000000000e-01 5.910650661966366376e-02 4.221784911552648456e-01 9.045837398942585539e-01
1.672363281250000000e-02 1.733779907226562500e-03 -2.187500000000000000e-01 3.370176158605863587e-02 4.588166398238727739e-01 8.878915937696038041e-01
1.776123046875000000e-02 1.733779907226562500e-03 -2.187500000000000000e-01 1.647448912431319010e-02 5.003854776927770809e-01 8.656459812892705052e-01
1.878356933593750000e-02 1.733779907226562500e-03 -2.187500000000000000e-01 1.823820975162900385e-02 5.259125607619775655e-01 8.503430755511771633e-01
1.982116699218750000e-02 1.733779907226562500e-03 -2.187500000000000000e-01 1.173114199958491706e-02 5.489118246201921680e-01 8.357979355678721856e-01
2.084350585937500000e-02 1.733779907226562500e-03 -2.187500000000000000e-01 -2.574235066955257983e-03 5.693478375988333395e-01 8.220927034923448673e-01
2.186584472656250000e-02 1.733779907226562500e-03 -2.187500000000000000e-01 -2.518844607239948546e-03 5.693551862408193776e-01 8.220877856546259244e-01
2.290344238281250000e-02 1.733779907226562500e-03 -2.187500000000000000e-01 -2.472321768433775793e-03 5.693611249917281958e-01 8.220838138372675852e-01
2.392578125000000000e-02 1.733779907226562500e-03 -2.187500000000000000e-01 -2.415431006802158664e-03 5.693679847539874217e-01 8.220792319662592051e-01
2.494812011718750000e-02 1.733779907226562500e-03 -2.187500000000000000e-01 2.500536679219250713e-02 5.709301575920525673e-01 8.206177470561443199e-01
2.598571777343750000e-02 1.733779907226562500e-03 -2.187500000000000000e-01 4.322296254347267330e-02 5.712403987866897515e-01 8.196439362936743800e-01
2.700805664062500000e-02 1.733779907226562500e-03 -2.187500000000000000e-01 5.253690908348062488e-02 5.713917313262558695e-01 8.189941163133822588e-01
2.816772460937500000e-02 1.742362976074218750e-03 -2.198486328125000000e-01 6.724028768957236724e-02 5.597519516113490523e-01 8.259276580783024846e-01
2.919006347656250000e-02 1.742362976074218750e-03 -2.198486328125000000e-01 4.317004475064031843e-02 5.705513938943654884e-01 8.201264866844774071e-01
3.022766113281250000e-02 1.742362976074218750e-03 -2.198486328125000000e-01 2.508350476829590558e-02 5.702175704266735368e-01 8.211106747358971614e-01
3.125000000000000000e-02 1.742362976074218750e-03 -2.198486328125000000e-01 -2.165768689705625284e-03 5.689902133314351795e-01 8.223414416038088426e-01
3.228759765625000000e-02 1.742362976074218750e-03 -2.198486328125000000e-01 -2.115606794726094305e-03 5.689953337047150006e-01 8.223380292982624962e-01
3.332519531250000000e-02 1.742362976074218750e-03 -2.198486328125000000e-01 -2.072998241618568410e-03 5.689997455691905293e-01 8.223350851207108514e-01
3.436279296875000000e-02 1.742362976074218750e-03 -2.198486328125000000e-01 -7.988048250827757199e-03 5.503745708939837833e-01 8.348796456965553725e-01
3.536987304687500000e-02 1.742362976074218750e-03 -2.198486328125000000e-01 -2.041154191971953410e-03 5.503212145309585024e-01 8.349505341795616653e-01
3.640747070312500000e-02 1.742362976074218750e-03 -2.198486328125000000e-01 7.330250234531068138e-03 5.279179518471304178e-01 8.492637420430887429e-01
3.744506835937500000e-02 1.742362976074218750e-03 -2.198486328125000000e-01 7.445007524049568511e-03 5.278978122298799702e-01 8.492752626244762792e-01
3.848266601562500000e-02 1.742362976074218750e-03 -2.198486328125000000e-01 7.434627817617868450e-03 5.278852606674013792e-01 8.492831553017656798e-01
3.952026367187500000e-02 1.742362976074218750e-03 -2.198486328125000000e-01 4.105952156637662429e-03 5.505866748335485061e-01 8.347679046613039056e-01
4.055786132812500000e-02 1.742362976074218750e-03 -2.198486328125000000e-01 2.200680906114454993e-02 5.792502981883790314e-01 8.148526200507795192e-01
4.156494140625000000e-02 1.742362976074218750e-03 -2.198486328125000000e-01 5.204012131750840320e-02 5.670184119792528454e-01 8.220595758518876028e-01
4.260253906250000000e-02 1.742362976074218750e-03 -2.198486328125000000e-01 5.189563981513086594e-02 5.772934965199674195e-01 8.148859192819131181e-01
4.364013671875000000e-02 1.742362976074218750e-03 -2.198486328125000000e-01 5.853403624418842405e-02 5.654253458398678100e-01 8.227198459274152054e-01
4.467773437500000000e-02 1.742362976074218750e-03 -2.198486328125000000e-01 4.986206622645536490e-02 5.540020714929531076e-01 8.310207453085305396e-01
4.571533203125000000e-02 1.742362976074218750e-03 -2.198486328125000000e-01 2.950340124252718438e-02 5.532233107534495486e-01 8.325103709588936862e-01
4.675292968750000000e-02 1.742362976074218750e-03 -2.198486328125000000e-01 8.544364206322931435e-03 5.525981742489970427e-01 8.334040146633472368e-01
4.776000976562500000e-02 1.742362976074218750e-03 -2.198486328125000000e-01 -6.268886195424053231e-03 5.420505622200183504e-01 8.403224911085214188e-01
4.879760742187500000e-02 1.742362976074218750e-03 -2.198486328125000000e-01 -3.244992535631471137e-02 5.327241997947487206e-01 8.456665591694012551e-01
4.983520507812500000e-02 1.742362976074218750e-03 -2.198486328125000000e-01 -6.433870699785632086e-02 5.460407318967410717e-01 8.352844125754503857e-01
5.087280273437500000e-02 1.742362976074218750e-03 -2.198486328125000000e-01 -7.909862243110156454e-02 5.575354896030644269e-01 8.263761769089021936e-01
5.191040039062500000e-02 1.742362976074218750e-03 -2.198486328125000000e-01 -7.626268336731591158e-02 5.686653152546898848e-01 8.190261060258705594e-01
5.294799804687500000e-02 1.742362976074218750e-03 -2.198486328125000000e-01 -7.390206689836741061e-02 5.836478003424158123e-01 8.086369578887726561e-01
5.395507812500000000e-02 1.742362976074218750e-03 -2.198486328125000000e-01 -7.237637083440409680e-02 5.636244218152968166e-01 8.228542836239070013e-01
5.499267578125000000e-02 1.742362976074218750e-03 -2.198486328125000000e-01 7.327187256740329280e-02 -5.455025446946667467e-01 -8.349001176321088069e-01
5.578613281250000000e-02 1.733779907226562500e-03 -2.187500000000000000e-01 4.363590584648759096e-02 -5.324250241719514776e-01 -8.453517027583568044e-01
-2.828979492187500000e-02 6.546974182128906250e-04 -2.027587890625000000e-01 -3.016856705470222222e-03 -2.761260616582024152e-01 -9.611166925242480286e-01
-2.734375000000000000e-02 6.546974182128906250e-04 -2.027587890625000000e-01 1.757966574756748834e-02 -2.617660487338304698e-01 -9.649712384742261673e-01
-2.638244628906250000e-02 6.546974182128906250e-04 -2.027587890625000000e-01 -7.923565066510390720e-02 2.568587415500905302e-01 9.631953584569338256e-01
-2.543640136718750000e-02 6.546974182128906250e-04 -2.027587890625000000e-01 -1.030387074182043811e-01 2.722905153882466678e-01 9.566822356473378974e-01
-2.447509765625000000e-02 6.546974182128906250e-04 -2.027587890625000000e-01 -9.818555901072634207e-02 2.678720870301380397e-01 9.584383866435386423e-01
-2.340698242187500000e-02 6.513595581054687500e-04 -2.017822265625000000e-01 -7.842102598658091950e-02 2.553166097848189042e-01 9.636719210660847912e-01
-2.246093750000000000e-02 6.513595581054687500e-04 -2.017822265625000000e-01 -8.067070105365176103e-02 2.992621465495329813e-01 9.507546505981857576e-01
-2.151489257812500000e-02 6.513595581054687500e-04 -2.017822265625000000e-01 -6.865079981775792928e-02 3.627395698209892605e-01 9.293584196479126591e-01
-2.056884765625000000e-02 6.513595581054687500e-04 -2.017822265625000000e-01 -3.743367435711348473e-02 4.283596455342035814e-01 9.028326168797498052e-01
-1.962280273437500000e-02 6.513595581054687500e-04 -2.017822265625000000e-01 -5.240148586887988236e-02 4.690753449784225149e-01 8.816021806983620479e-01
