-3.527832031250000000e-02 2.969360351562500000e-02 -2.368164062500000000e-01 -3.486601152021224226e-01 -3.669728635252293425e-01 8.624192956464600268e-01
-3.414916992187500000e-02 2.969360351562500000e-02 -2.368164062500000000e-01 -4.072476946672878850e-01 -2.944614252066247162e-01 8.645471555985033696e-01
-3.289794921875000000e-02 2.957153320312500000e-02 -2.358398437500000000e-01 -4.345605405360365991e-01 -2.119991358300429007e-01 8.753362228403110956e-01
-3.167724609375000000e-02 2.943420410156250000e-02 -2.348632812500000000e-01 -4.798696963586905340e-01 -1.205641745978362211e-01 8.690163141852750295e-01
-3.056335449218750000e-02 2.943420410156250000e-02 -2.348632812500000000e-01 -5.342669236751498296e-01 -4.394995134720063035e-02 8.441725274156167691e-01
-2.934265136718750000e-02 2.931213378906250000e-02 -2.338867187500000000e-01 -5.600003811266665021e-01 3.419546138341894581e-02 8.277863513967617104e-01
-2.812194824218750000e-02 2.919006347656250000e-02 -2.327880859375000000e-01 -5.530250711496963456e-01 1.202631195562223615e-01 8.244392353317975264e-01
-2.690124511718750000e-02 2.906799316406250000e-02 -2.318115234375000000e-01 -4.926328128434847020e-01 2.110564300996477516e-01 8.442559416572137376e-01
-2.581787109375000000e-02 2.906799316406250000e-02 -2.318115234375000000e-01 -3.779309951812053758e-01 2.982984308643151228e-01 8.764623260729643706e-01
-2.462768554687500000e-02 2.893066406250000000e-02 -2.308349609375000000e-01 -3.697253764987558089e-01 3.910098628961506395e-01 8.428608622369332393e-01
-2.354431152343750000e-02 2.893066406250000000e-02 -2.308349609375000000e-01 -3.120875883305690435e-01 4.181407581731280132e-01 8.530882976365405934e-01
-2.235412597656250000e-02 2.880859375000000000e-02 -2.298583984375000000e-01 -2.412755975057528091e-01 5.253384682600303890e-01 8.159691046935827474e-01
-2.127075195312500000e-02 2.880859375000000000e-02 -2.298583984375000000e-01 -1.823476780008310427e-01 5.377369803139647741e-01 8.231574966739498844e-01
-2.020263671875000000e-02 2.880859375000000000e-02 -2.298583984375000000e-01 -9.363987512408342151e-02 5.608161961842963450e-01 8.226279644432974436e-01
-1.911926269531250000e-02 2.880859375000000000e-02 -2.298583984375000000e-01 -3.957367379785688144e-02 5.419492842724106252e-01 8.394789441187686663e-01
-1.803588867187500000e-02 2.880859375000000000e-02 -2.298583984375000000e-01 -3.268743794740382874e-02 5.332978093511946405e-01 8.452957931645297407e-01
-1.695251464843750000e-02 2.880859375000000000e-02 -2.298583984375000000e-01 -1.830898274652713667e-02 5.239794772697512482e-01 8.515340795005833519e-01
-1.588439941406250000e-02 2.880859375000000000e-02 -2.298583984375000000e-01 3.842678669442854428e-03 5.131716411471117789e-01 8.582774030248165875e-01
-1.480102539062500000e-02 2.880859375000000000e-02 -2.298583984375000000e-01 3.882878301700974730e-03 5.131630555492374679e-01 8.582823554492219342e-01
-1.372528076171875000e-02 2.880859375000000000e-02 -2.298583984375000000e-01 3.922495373207126462e-03 5.131539885585822969e-01 8.582875963547796916e-01
-1.264190673828125000e-02 2.880859375000000000e-02 -2.298583984375000000e-01 2.562302857273319329e-02 5.223755906481777345e-01 8.523304539330555096e-01
-1.156616210937500000e-02 2.880859375000000000e-02 -2.298583984375000000e-01 3.980455025920904416e-02 5.307599466736168115e-01 8.465869576042862610e-01
-1.048278808593750000e-02 2.880859375000000000e-02 -2.298583984375000000e-01 4.660431838632463075e-02 5.390598006414218935e-01 8.409771511998268556e-01
-9.407043457031250000e-03 2.880859375000000000e-02 -2.298583984375000000e-01 4.617797937956331228e-02 5.476441062356632861e-01 8.354361298901085142e-01
-8.323669433593750000e-03 2.880859375000000000e-02 -2.298583984375000000e-01 3.865609468656369674e-02 5.565467650372157848e-01 8.299165046377818822e-01
-7.247924804687500000e-03 2.880859375000000000e-02 -2.298583984375000000e-01 3.368859677093950442e-03 5.594701266206447698e-01 8.288436693391315613e-01
-6.168365478515625000e-03 2.880859375000000000e-02 -2.298583984375000000e-01 -3.152939599012785643e-02 5.597535076610656857e-01 8.280591209869202496e-01
-5.088806152343750000e-03 2.880859375000000000e-02 -2.298583984375000000e-01 -6.015417098014721325e-02 5.525271270123333078e-01 8.313213876890139797e-01
-4.009246826171875000e-03 2.880859375000000000e-02 -2.298583984375000000e-01 -7.496479582199669367e-02 5.442040796049385509e-01 8.355969118712130994e-01
-2.929687500000000000e-03 2.880859375000000000e-02 -2.298583984375000000e-01 -7.594108314991374065e-02 5.359873462209820971e-01 8.408034946293974077e-01
-1.842498779296875000e-03 2.868652343750000000e-02 -2.288818359375000000e-01 -7.529477614631678584e-02 5.314634758778190582e-01 8.437281970474512782e-01
-7.681846618652343750e-04 2.868652343750000000e-02 -2.288818359375000000e-01 -7.479688241349378985e-02 5.403503196000226660e-01 8.381091566671822202e-01
3.066062927246093750e-04 2.868652343750000000e-02 -2.288818359375000000e-01 -7.159648161231639552e-02 5.545483051970996335e-01 8.290658122391499907e-01
1.380920410156250000e-03 2.868652343750000000e-02 -2.288818359375000000e-01 -5.935531166081619431e-02 5.837433946121592943e-01 8.097657662709139004e-01
2.454757690429687500e-03 2.868652343750000000e-02 -2.288818359375000000e-01 -5.800335493644896007e-02 6.082201062990336693e-01 7.916463308256461717e-01
3.530502319335937500e-03 2.868652343750000000e-02 -2.288818359375000000e-01 -3.468434276874177852e-02 6.291858656426985164e-01 7.764806133073437477e-01
4.604339599609375000e-03 2.868652343750000000e-02 -2.288818359375000000e-01 -9.909927836895276077e-05 6.455704239747764861e-01 7.637007384233437390e-01
5.680084228515625000e-03 2.868652343750000000e-02 -2.288818359375000000e-01 -9.915081043003049594e-05 6.455706478444616092e-01 7.637005491753944275e-01
6.755828857421875000e-03 2.868652343750000000e-02 -2.288818359375000000e-01 2.034343794748353501e-02 6.486639665772161445e-01 7.608029988090144746e-01
7.827758789062500000e-03 2.868652343750000000e-02 -2.288818359375000000e-01 7.149622472689723396e-02 6.519657718466920215e-01 7.548701359771414765e-01
8.903503417968750000e-03 2.868652343750000000e-02 -2.288818359375000000e-01 1.167885475969136222e-01 6.576398883876071189e-01 7.442245711824750920e-01
1.001739501953125000e-02 2.880859375000000000e-02 -2.298583984375000000e-01 1.424652339941478163e-01 6.496499330096040525e-01 7.467654395080223217e-01
1.110076904296875000e-02 2.880859375000000000e-02 -2.298583984375000000e-01 1.319226179126891663e-01 6.382017829605438619e-01 7.584819754674763104e-01
1.218414306640625000e-02 2.880859375000000000e-02 -2.298583984375000000e-01 8.726756885327092983e-02 6.227870758304696608e-01 7.775092472793957432e-01
1.325988769531250000e-02 2.880859375000000000e-02 -2.298583984375000000e-01 -1.171125641812534183e-03 6.221512255708406824e-01 7.828962134187597011e-01
1.434326171875000000e-02 2.880859375000000000e-02 -2.298583984375000000e-01 -1.043588734968241239e-03 6.371969692020491571e-01 7.707002876360401489e-01
1.541900634765625000e-02 2.880859375000000000e-02 -2.298583984375000000e-01 -1.046208404242349307e-03 6.371995282576640163e-01 7.706981683098677038e-01
1.649475097656250000e-02 2.880859375000000000e-02 -2.298583984375000000e-01 -1.047468572431960090e-03 6.372018870345373953e-01 7.706962163973651858e-01
1.757812500000000000e-02 2.880859375000000000e-02 -2.298583984375000000e-01 2.088616393862507623e-02 6.407391638060031536e-01 7.674744895572181980e-01
1.866149902343750000e-02 2.880859375000000000e-02 -2.298583984375000000e-01 8.728113148826271983e-02 6.438337229519084381e-01 7.601711263103945182e-01
1.972961425781250000e-02 2.880859375000000000e-02 -2.298583984375000000e-01 1.243684600680104585e-01 6.629349040667529280e-01 7.382748804546426236e-01
2.090454101562500000e-02 2.893066406250000000e-02 -2.308349609375000000e-01 -2.543856139631936464e-01 -6.489509838469825764e-01 -7.170429415122933081e-01
2.198791503906250000e-02 2.893066406250000000e-02 -2.308349609375000000e-01 -3.437942457279279940e-01 -6.320995983183602673e-01 -6.944462645951323676e-01
2.337646484375000000e-02 2.931213378906250000e-02 -2.338867187500000000e-01 6.619536401552706950e-01 3.873125518340130302e-01 6.417214079933841742e-01
2.499389648437500000e-02 2.993774414062500000e-02 -2.388916015625000000e-01 4.137654701413500113e-01 -6.844376300305670124e-01 6.002859871068522146e-01
2.622985839843750000e-02 3.007507324218750000e-02 -2.398681640625000000e-01 1.864386808959195840e-01 -7.402346149004241926e-01 6.459824557749306306e-01
2.746582031250000000e-02 3.019714355468750000e-02 -2.408447265625000000e-01 1.764755798094254646e-01 -7.204642522286911488e-01 6.706620840568519037e-01
2.861022949218750000e-02 3.019714355468750000e-02 -2.408447265625000000e-01 1.531944745991278278e-01 -6.940670530718813236e-01 7.034219066765060591e-01
2.973937988281250000e-02 3.019714355468750000e-02 -2.408447265625000000e-01 1.272812217574332272e-01 -6.834486384080397103e-01 7.188167007284483878e-01
3.086853027343750000e-02 3.019714355468750000e-02 -2.408447265625000000e-01 1.407230936502902596e-01 -6.731352512518555820e-01 7.260068487525395131e-01
3.198242187500000000e-02 3.019714355468750000e-02 -2.408447265625000000e-01 1.544418189833141886e-01 -6.787716125812744972e-01 7.179253599803681052e-01
3.326416015625000000e-02 3.031921386718750000e-02 -2.419433593750000000e-01 1.389750007928962916e-01 -6.934019822752778284e-01 7.070216687848609460e-01
3.439331054687500000e-02 3.031921386718750000e-02 -2.419433593750000000e-01 9.257341266383622980e-02 -6.966577718677697817e-01 7.114057296395676078e-01
3.552246093750000000e-02 3.031921386718750000e-02 -2.419433593750000000e-01 4.330269901632956275e-02 -7.140005130281624757e-01 6.988047965300625552e-01
3.668212890625000000e-02 3.031921386718750000e-02 -2.419433593750000000e-01 1.064369235560538862e-03 -7.146153328374013070e-01 6.995168283835783152e-01
3.781127929687500000e-02 3.031921386718750000e-02 -2.419433593750000000e-01 -6.003645842957020320e-04 -7.146222270689077671e-01 6.995103374085619441e-01
3.894042968750000000e-02 3.031921386718750000e-02 -2.419433593750000000e-01 1.059826256251467352e-03 -7.146102621598340310e-01 6.995220153677509378e-01
4.006958007812500000e-02 3.031921386718750000e-02 -2.419433593750000000e-01 1.059478637685067493e-03 -7.146078158303921235e-01 6.995245149808065888e-01
4.119873046875000000e-02 3.031921386718750000e-02 -2.419433593750000000e-01 -5.988568503807104428e-04 -7.146260851305078488e-01 6.995063972699012700e-01
4.235839843750000000e-02 3.031921386718750000e-02 -2.419433593750000000e-01 1.056079526154185674e-03 -7.146028319823486408e-01 6.995296113952873540e-01
4.348754882812500000e-02 3.031921386718750000e-02 -2.419433593750000000e-01 -5.953368584894788533e-04 -7.146288996418858064e-01 6.995035249165314495e-01
4.461669921875000000e-02 3.031921386718750000e-02 -2.419433593750000000e-01 1.069555891733081285e-03 -7.145986267087488519e-01 6.995338867818805539e-01
4.574584960937500000e-02 3.031921386718750000e-02 -2.419433593750000000e-01 -5.818793865110139397e-04 -7.146312127267779868e-01 6.995011731319927817e-01
4.690551757812500000e-02 3.031921386718750000e-02 -2.419433593750000000e-01 -5.814825387950099374e-04 -7.146328357954246924e-01 6.994995152829245333e-01
4.803466796875000000e-02 3.031921386718750000e-02 -2.419433593750000000e-01 -5.838188582492611018e-04 -7.146343389539119295e-01 6.994979776550079853e-01
4.916381835937500000e-02 3.031921386718750000e-02 -2.419433593750000000e-01 -5.856238625640087852e-04 -7.146356726590725739e-01 6.994966135785122274e-01
5.029296875000000000e-02 3.031921386718750000e-02 -2.419433593750000000e-01 -2.271777003291123795e-02 -7.136279597081950365e-01 7.001564382675135034e-01
5.145263671875000000e-02 3.031921386718750000e-02 -2.419433593750000000e-01 -8.893320417729114191e-02 -6.995468822322226110e-01 7.090310605001286515e-01
5.258178710937500000e-02 3.031921386718750000e-02 -2.419433593750000000e-01 -1.351545540738244289e-01 -7.005445841650658201e-01 7.006928942911441194e-01
5.371093750000000000e-02 3.031921386718750000e-02 -2.419433593750000000e-01 -2.342767018238253451e-01 -6.948750520219484361e-01 6.798993227383337556e-01
5.462646484375000000e-02 3.019714355468750000e-02 -2.408447265625000000e-01 -3.460824458461762565e-01 -6.836432844186933755e-01 6.425408939097571048e-01
5.575561523437500000e-02 3.019714355468750000e-02 -2.408447265625000000e-01 -4.597785302317703993e-01 -6.570377603449395476e-01 5.974153367790442370e-01
5.664062500000000000e-02 3.007507324218750000e-02 -2.398681640625000000e-01 -5.678608050279397856e-01 -5.925136482677330063e-01 5.713682549192606874e-01
5.752563476562500000e-02 2.993774414062500000e-02 -2.388916015625000000e-01 6.284867065078626469e-01 5.236123695361452057e-01 -5.751821852349420228e-01
5.841064453125000000e-02 2.981567382812500000e-02 -2.379150390625000000e-01 7.696576151842458025e-01 3.711087336812252113e-01 -5.195242662036272385e-01
5.902099609375000000e-02 2.957153320312500000e-02 -2.358398437500000000e-01 8.054646878515152597e-01 2.205747544419262851e-01 -5.500667362485628376e-01
5.963134765625000000e-02 2.931213378906250000e-02 -2.338867187500000000e-01 7.910216656216277897e-01 -2.837157645253211014e-01 -5.420240672488617628e-01
5.914306640625000000e-02 2.856445312500000000e-02 -2.277832031250000000e-01 7.645527462474285829e-02 -6.282945419615664218e-01 -7.742096353852496726e-01
6.076049804687500000e-02 2.880859375000000000e-02 -2.298583984375000000e-01 2.180002880916539487e-01 -7.606758830125045501e-01 -6.114311697935446155e-01
6.182861328125000000e-02 2.880859375000000000e-02 -2.298583984375000000e-01 1.265220633653839910e-01 -7.240409117821859919e-01 -6.780537777694234380e-01
6.292724609375000000e-02 2.880859375000000000e-02 -2.298583984375000000e-01 1.628844209738487536e-01 -7.120874541341981612e-01 -6.829349332613543488e-01
6.372070312500000000e-02 2.868652343750000000e-02 -2.288818359375000000e-01 -1.394470010534029636e-01 6.762600554656403862e-01 7.233442273764416619e-01
6.475830078125000000e-02 2.868652343750000000e-02 -2.288818359375000000e-01 -1.104852073388827710e-01 6.936547037802466287e-01 7.117837950408973935e-01
6.585693359375000000e-02 2.868652343750000000e-02 -2.288818359375000000e-01 -1.395773152505884766e-03 -7.088281770672767435e-01 -7.053798035192021532e-01
6.689453125000000000e-02 2.868652343750000000e-02 -2.288818359375000000e-01 7.977189761392758371e-02 6.949955763717730051e-01 7.145751137387448271e-01
6.799316406250000000e-02 2.868652343750000000e-02 -2.288818359375000000e-01 1.369712593201602713e-01 6.609933310245557081e-01 7.377849893168818562e-01
6.939697265625000000e-02 2.880859375000000000e-02 -2.298583984375000000e-01 1.021056088526322986e-01 6.571109920977211694e-01 7.468464291306358138e-01
7.043457031250000000e-02 2.880859375000000000e-02 -2.298583984375000000e-01 7.333030844053306518e-02 6.503942678200784755e-01 7.560489152500652343e-01
7.153320312500000000e-02 2.880859375000000000e-02 -2.298583984375000000e-01 2.230810250686704813e-02 6.426489395703448571e-01 7.658359413292473716e-01
7.263183593750000000e-02 2.880859375000000000e-02 -2.298583984375000000e-01 9.400172605779131922e-05 6.372105955719299386e-01 7.706897222972043382e-01
7.366943359375000000e-02 2.880859375000000000e-02 -2.298583984375000000e-01 5.791669720554902534e-02 6.275028530467111620e-01 7.764572271561637207e-01
7.476806640625000000e-02 2.880859375000000000e-02 -2.298583984375000000e-01 1.133558042435549307e-01 6.049659934535526196e-01 7.881412363333445414e-01
7.586669921875000000e-02 2.880859375000000000e-02 -2.298583984375000000e-01 1.371746190299278911e-01 6.055849254375036406e-01 7.838686254576383572e-01
7.727050781250000000e-02 2.893066406250000000e-02 -2.308349609375000000e-01 1.344688300921176582e-01 5.974173702696947696e-01 7.905761313331559625e-01
7.836914062500000000e-02 2.893066406250000000e-02 -2.308349609375000000e-01 7.433564884725239741e-02 6.089569067216401566e-01 7.897124141524366481e-01
7.946777343750000000e-02 2.893066406250000000e-02 -2.308349609375000000e-01 -2.136996774999469495e-02 6.241168364319076289e-01 7.810387307685782154e-01
8.050537109375000000e-02 2.893066406250000000e-02 -2.308349609375000000e-01 -1.704068933886144360e-02 6.242999058483644781e-01 7.809988748164619077e-01
8.123779296875000000e-02 2.880859375000000000e-02 -2.298583984375000000e-01 9.677971402894575137e-02 -6.142707456390934517e-01 -7.831380069977884606e-01
-9.191894531250000000e-02 2.821350097656250000e-02 -2.338867187500000000e-01 5.822541221304999848e-01 -3.557260209694180775e-01 -7.310534421417537176e-01
-8.807373046875000000e-02 2.737426757812500000e-02 -2.268066406250000000e-01 1.263158282451300185e-01 -6.209391387589966449e-01 -7.736141787040763385e-01
-8.782958984375000000e-02 2.760314941406250000e-02 -2.288818359375000000e-01 1.755681552428562664e-01 -6.449364169931295354e-01 -7.437962361431285085e-01
-8.636474609375000000e-02 2.749633789062500000e-02 -2.277832031250000000e-01 -7.579264346302194699e-02 6.278833001104348055e-01 7.746083117546034291e-01
-8.526611328125000000e-02 2.749633789062500000e-02 -2.277832031250000000e-01 -5.932217741656484189e-02 6.416444366536222521e-01 7.647047117535064054e-01
-8.422851562500000000e-02 2.749633789062500000e-02 -2.277832031250000000e-01 -8.371750623646560807e-02 6.153994507085972510e-01 7.837569107938405777e-01
-8.312988281250000000e-02 2.749633789062500000e-02 -2.277832031250000000e-01 -2.582954646488947945e-02 6.169515309671841363e-01 7.865771691109942898e-01
-8.209228515625000000e-02 2.749633789062500000e-02 -2.277832031250000000e-01 -4.757772481270327453e-02 5.939691858619328135e-01 8.030796762141096945e-01
-8.099365234375000000e-02 2.749633789062500000e-02 -2.277832031250000000e-01 -5.088851302356336287e-02 5.703004693428757044e-01 8.198583621025928858e-01
-7.995605468750000000e-02 2.749633789062500000e-02 -2.277832031250000000e-01 -5.538025061384997672e-02 5.570671390314660965e-01 8.286188692355759278e-01
-7.885742187500000000e-02 2.749633789062500000e-02 -2.277832031250000000e-01 -3.910611942245330319e-02 5.433357135933751803e-01 8.386042056642064590e-01
-7.781982421875000000e-02 2.749633789062500000e-02 -2.277832031250000000e-01 -6.549065772404204580e-03 5.448528777907879483e-01 8.385060830432928825e-01
-7.672119140625000000e-02 2.749633789062500000e-02 -2.277832031250000000e-01 2.764441624634855765e-02 5.438322606271143167e-01 8.387384923512221091e-01
-7.562255859375000000e-02 2.749633789062500000e-02 -2.277832031250000000e-01 4.850364707100904976e-02 5.564053622463926985e-01 8.294941043095312994e-01
-7.458496093750000000e-02 2.749633789062500000e-02 -2.277832031250000000e-01 6.029877777253270232e-02 5.838552937738111792e-01 8.096153737000276740e-01
-7.348632812500000000e-02 2.749633789062500000e-02 -2.277832031250000000e-01 5.741624275876867217e-02 6.070912206683660717e-01 7.925551241742491149e-01
-7.244873046875000000e-02 2.749633789062500000e-02 -2.277832031250000000e-01 4.044754198362288111e-02 6.262701730259591093e-01 7.785561423080022969e-01
-7.135009765625000000e-02 2.749633789062500000e-02 -2.277832031250000000e-01 9.039559739077294986e-02 6.406739206309490786e-01 7.624733197927214823e-01
-7.031250000000000000e-02 2.749633789062500000e-02 -2.277832031250000000e-01 1.529969636813496292e-01 6.282867297477838786e-01 7.627894298737516454e-01
-6.921386718750000000e-02 2.749633789062500000e-02 -2.277832031250000000e-01 2.275966113028000393e-01 6.218219261048948399e-01 7.493579083046237876e-01
-6.848144531250000000e-02 2.760314941406250000e-02 -2.288818359375000000e-01 3.158242909554244138e-01 6.091992894657678459e-01 7.274140794326894310e-01
-6.738281250000000000e-02 2.760314941406250000e-02 -2.288818359375000000e-01 4.185185692677742542e-01 5.727678041391530694e-01 7.048256874714967646e-01
-6.658935546875000000e-02 2.772521972656250000e-02 -2.298583984375000000e-01 5.099522543575230049e-01 5.151395951439431409e-01 6.888975945600439577e-01
-6.579589843750000000e-02 2.784729003906250000e-02 -2.308349609375000000e-01 5.484754760342017699e-01 4.772587238824483324e-01 6.865848546735886515e-01
-6.469726562500000000e-02 2.784729003906250000e-02 -2.308349609375000000e-01 6.742823616770929895e-01 4.480074868248926645e-01 5.870541614536135544e-01
-6.420898437500000000e-02 2.809143066406250000e-02 -2.327880859375000000e-01 7.777394109572622893e-01 2.207232843016066481e-01 5.885598018986368807e-01
-6.335449218750000000e-02 2.821350097656250000e-02 -2.338867187500000000e-01 8.251404963758213196e-01 2.042377448410741606e-02 5.645582615430275730e-01
-6.256103515625000000e-02 2.833557128906250000e-02 -2.348632812500000000e-01 7.994145845058351352e-01 -1.744926380396749077e-01 5.748814150321071015e-01
-6.198120117187500000e-02 2.857971191406250000e-02 -2.368164062500000000e-01 7.152439222944554365e-01 -3.164883904242217216e-01 6.231061148372150083e-01
-6.085205078125000000e-02 2.857971191406250000e-02 -2.368164062500000000e-01 5.397745074906257212e-01 -4.418014555135417187e-01 7.165577122391250109e-01
-5.999755859375000000e-02 2.870178222656250000e-02 -2.379150390625000000e-01 3.277643902796793518e-01 -5.351856757281974186e-01 7.785542993009175738e-01
-5.889892578125000000e-02 2.870178222656250000e-02 -2.379150390625000000e-01 2.761775524470345133e-01 -5.815104103216915954e-01 7.652265038613491610e-01
-5.776977539062500000e-02 2.870178222656250000e-02 -2.379150390625000000e-01 1.974816494799437883e-01 -5.671860468029636948e-01 7.995629971620166199e-01
-5.688476562500000000e-02 2.882385253906250000e-02 -2.388916015625000000e-01 1.430201873317308026e-01 -6.204251078302273070e-01 7.711147201224001213e-01
-5.575561523437500000e-02 2.882385253906250000e-02 -2.388916015625000000e-01 1.281661246822923261e-01 -6.283085448681411389e-01 7.673342276541573748e-01
-5.465698242187500000e-02 2.882385253906250000e-02 -2.388916015625000000e-01 1.146658654182761555e-01 -6.348314932008993772e-01 7.640947026044574431e-01
-5.352783203125000000e-02 2.882385253906250000e-02 -2.388916015625000000e-01 6.821178560032369054e-02 -6.395711585142358491e-01 7.656996052643448847e-01
-5.239868164062500000e-02 2.882385253906250000e-02 -2.388916015625000000e-01 2.921010131135990534e-02 -6.220834387557307998e-01 7.824058826512138021e-01
-5.126953125000000000e-02 2.882385253906250000e-02 -2.388916015625000000e-01 2.717015260149227562e-02 -6.063335713568284158e-01 7.947461123234799141e-01
-5.017089843750000000e-02 2.882385253906250000e-02 -2.388916015625000000e-01 4.470215494783694177e-02 -5.981919798038786151e-01 8.001050385051550196e-01
-4.904174804687500000e-02 2.882385253906250000e-02 -2.388916015625000000e-01 7.854275014228771779e-02 -5.907397838970385173e-01 8.030302261567532351e-01
-4.791259765625000000e-02 2.882385253906250000e-02 -2.388916015625000000e-01 9.471720767970295829e-02 -5.831570828101286796e-01 8.068187326393339021e-01
-4.678344726562500000e-02 2.882385253906250000e-02 -2.388916015625000000e-01 9.279111737288445183e-02 -5.771603914145813086e-01 8.113419076559887921e-01
-4.586791992187500000e-02 2.894592285156250000e-02 -2.398681640625000000e-01 7.089187183822741323e-02 -5.737837234722730217e-01 8.159329514032183095e-01
-4.473876953125000000e-02 2.894592285156250000e-02 -2.398681640625000000e-01 1.109290745558968484e-02 -5.641395477455710683e-01 8.256049406790176848e-01
-4.360961914062500000e-02 2.894592285156250000e-02 -2.398681640625000000e-01 -1.618772255542948180e-02 -5.463982588182849653e-01 8.373690347742834827e-01
-4.248046875000000000e-02 2.894592285156250000e-02 -2.398681640625000000e-01 -5.640176626285168388e-02 -5.471179044144327541e-01 8.351531832134690969e-01
-4.116821289062500000e-02 2.882385253906250000e-02 -2.388916015625000000e-01 -1.225655814633953983e-01 -5.676181488872229508e-01 8.141175070555737303e-01
-4.006958007812500000e-02 2.882385253906250000e-02 -2.388916015625000000e-01 -1.806428656887213158e-01 -5.581160995877497699e-01 8.098608364754550371e-01
-3.894042968750000000e-02 2.882385253906250000e-02 -2.388916015625000000e-01 -2.337280866672494239e-01 -5.051196674777593820e-01 8.307979917103943679e-01
-3.781127929687500000e-02 2.882385253906250000e-02 -2.388916015625000000e-01 -2.848560499895457232e-01 -4.684261851482860450e-01 8.363216724752366993e-01
-3.652954101562500000e-02 2.870178222656250000e-02 -2.379150390625000000e-01 -3.508298979879576063e-01 -4.131888304539272361e-01 8.403531240293421467e-01
-3.543090820312500000e-02 2.870178222656250000e-02 -2.379150390625000000e-01 -4.111214508693751268e-01 -3.737509336480787092e-01 8.314381469671989766e-01
-3.414916992187500000e-02 2.857971191406250000e-02 -2.368164062500000000e-01 -4.899713427617789496e-01 -2.724017087624379108e-01 8.280853774433668546e-01
-3.289794921875000000e-02 2.845764160156250000e-02 -2.358398437500000000e-01 -4.930070111628642726e-01 -2.268379056853563613e-01 8.399337185091099167e-01
-3.179931640625000000e-02 2.845764160156250000e-02 -2.358398437500000000e-01 -5.462787644905100493e-01 -1.406930552063161144e-01 8.257027162868207926e-01
-3.056335449218750000e-02 2.833557128906250000e-02 -2.348632812500000000e-01 -5.853620752436131669e-01 -8.116444696222900601e-02 8.066991839687245314e-01
-2.934265136718750000e-02 2.821350097656250000e-02 -2.338867187500000000e-01 -5.843664970713365880e-01 1.063681376306025231e-02 8.114201472070714516e-01
-2.812194824218750000e-02 2.809143066406250000e-02 -2.327880859375000000e-01 -6.050608527039056384e-01 1.357857925365436036e-01 7.845148711595243407e-01
-2.690124511718750000e-02 2.796936035156250000e-02 -2.318115234375000000e-01 -5.312399215591444568e-01 2.243780858145227874e-01 8.169691673178643976e-01
-2.571105957031250000e-02 2.784729003906250000e-02 -2.308349609375000000e-01 -4.816909517227455084e-01 2.992508902813670879e-01 8.236642105216450682e-01
-2.462768554687500000e-02 2.784729003906250000e-02 -2.308349609375000000e-01 -4.087706941410421124e-01 3.643287367501549801e-01 8.367622668294064647e-01
-2.343750000000000000e-02 2.772521972656250000e-02 -2.298583984375000000e-01 -3.611801705736995549e-01 4.666591209887579472e-01 8.073277829867823163e-01
-2.226257324218750000e-02 2.760314941406250000e-02 -2.288818359375000000e-01 -2.605517530513042357e-01 5.644590295750397946e-01 7.832616343937039982e-01
-2.117919921875000000e-02 2.760314941406250000e-02 -2.288818359375000000e-01 -1.572569010370571674e-01 6.024552263173126310e-01 7.825074870946455707e-01
-2.011108398437500000e-02 2.760314941406250000e-02 -2.288818359375000000e-01 -6.348413292757627835e-02 6.216378491005973839e-01 7.807279612208190001e-01
-1.902770996093750000e-02 2.760314941406250000e-02 -2.288818359375000000e-01 -1.690021886883428040e-02 6.118126008754175560e-01 7.908221822965277870e-01
-1.795959472656250000e-02 2.760314941406250000e-02 -2.288818359375000000e-01 -1.214989646898217632e-02 6.008984564274344464e-01 7.992330230157658200e-01
-1.689147949218750000e-02 2.760314941406250000e-02 -2.288818359375000000e-01 1.895566381923793810e-03 5.859282267560703694e-01 8.103607344378048749e-01
-1.580810546875000000e-02 2.760314941406250000e-02 -2.288818359375000000e-01 1.960346978026964934e-03 5.859226812262019468e-01 8.103645899620887105e-01
-1.473999023437500000e-02 2.760314941406250000e-02 -2.288818359375000000e-01 1.996128154368400232e-03 5.859177310888935564e-01 8.103680817184463203e-01
-1.366424560546875000e-02 2.760314941406250000e-02 -2.288818359375000000e-01 2.074306581466249435e-03 5.859116519386042832e-01 8.103722807295311581e-01
-1.258850097656250000e-02 2.760314941406250000e-02 -2.288818359375000000e-01 2.094940434012302222e-03 5.859064227113788270e-01 8.103760084369064920e-01
-1.151275634765625000e-02 2.760314941406250000e-02 -2.288818359375000000e-01 1.503180121390075390e-02 6.002827228462885856e-01 7.996466079491062473e-01
-1.043701171875000000e-02 2.760314941406250000e-02 -2.288818359375000000e-01 2.094997088358190040e-02 6.133499303142619929e-01 7.895333822603494145e-01
-9.361267089843750000e-03 2.760314941406250000e-02 -2.288818359375000000e-01 2.021948062321426987e-02 6.255264326082885518e-01 7.799409302707966951e-01
-8.285522460937500000e-03 2.760314941406250000e-02 -2.288818359375000000e-01 1.314549572316763698e-02 6.369000516945109158e-01 7.708343013214458139e-01
-7.217407226562500000e-03 2.760314941406250000e-02 -2.288818359375000000e-01 1.552341154891038468e-04 6.472959685823537201e-01 7.622387453806070967e-01
-6.141662597656250000e-03 2.760314941406250000e-02 -2.288818359375000000e-01 -1.226749145652460474e-02 6.376545807080153949e-01 7.702247362656234886e-01
-5.065917968750000000e-03 2.760314941406250000e-02 -2.288818359375000000e-01 -3.825642699099351257e-02 6.217898573088835867e-01 7.822492052675291685e-01
-3.990173339843750000e-03 2.760314941406250000e-02 -2.288818359375000000e-01 -5.208011293125241331e-02 6.027041871411313867e-01 7.962633513101153859e-01
-2.916336059570312500e-03 2.760314941406250000e-02 -2.288818359375000000e-01 -5.288377101881583386e-02 5.809327570182984957e-01 8.122317640833484065e-01
-1.842498779296875000e-03 2.760314941406250000e-02 -2.288818359375000000e-01 -6.409110938000291136e-02 5.568596031597964346e-01 8.281302506654097950e-01
-7.681846618652343750e-04 2.760314941406250000e-02 -2.288818359375000000e-01 -8.226559847608981568e-02 5.501214659494405579e-01 8.310227096830804516e-01
3.066062927246093750e-04 2.760314941406250000e-02 -2.288818359375000000e-01 -9.790692267712393371e-02 5.597020984355914885e-01 8.228899048467486210e-01
1.375198364257812500e-03 2.749633789062500000e-02 -2.277832031250000000e-01 -1.084569598777751637e-01 5.818164546878856758e-01 8.060562641084617619e-01
2.445220947265625000e-03 2.749633789062500000e-02 -2.277832031250000000e-01 -9.800680472828596224e-02 6.046722431722960645e-01 7.904214980400871005e-01
3.515243530273437500e-03 2.749633789062500000e-02 -2.277832031250000000e-01 -6.756246189992463902e-02 6.268738851091851805e-01 7.761858320725374405e-01
4.585266113281250000e-03 2.749633789062500000e-02 -2.277832031250000000e-01 -1.878527165153833639e-02 6.447663905873970425e-01 7.641488174026563884e-01
5.653381347656250000e-03 2.749633789062500000e-02 -2.277832031250000000e-01 1.802392056034850362e-04 6.491468123167419835e-01 7.606631209496366175e-01
6.725311279296875000e-03 2.749633789062500000e-02 -2.277832031250000000e-01 -9.670707054865821262e-04 6.486556046142676335e-01 7.610814485827055442e-01
7.793426513671875000e-03 2.749633789062500000e-02 -2.277832031250000000e-01 5.486690219254099915e-02 6.692498277760905445e-01 7.410089682760037100e-01
8.865356445312500000e-03 2.749633789062500000e-02 -2.277832031250000000e-01 9.949700550490142570e-02 6.818811054324485088e-01 7.246644078121815546e-01
9.933471679687500000e-03 2.749633789062500000e-02 -2.277832031250000000e-01 1.179109501301263407e-01 6.921468537147387190e-01 7.120602086426393029e-01
1.105499267578125000e-02 2.760314941406250000e-02 -2.288818359375000000e-01 1.231888468672563824e-01 6.931205711775982881e-01 7.102171370911544157e-01
1.213073730468750000e-02 2.760314941406250000e-02 -2.288818359375000000e-01 9.766980421774126842e-02 7.013773587970750789e-01 7.060668593772880808e-01
1.319885253906250000e-02 2.760314941406250000e-02 -2.288818359375000000e-01 -4.943046807475005855e-02 -7.078410633763523307e-01 -7.046400909855654593e-01
1.427459716796875000e-02 2.760314941406250000e-02 -2.288818359375000000e-01 2.043440237571109500e-02 7.010797289649374209e-01 7.127900454088829107e-01
1.535034179687500000e-02 2.760314941406250000e-02 -2.288818359375000000e-01 4.829303276930045803e-03 6.898711833207274990e-01 7.239160367428798537e-01
1.641845703125000000e-02 2.760314941406250000e-02 -2.288818359375000000e-01 9.358256546984597066e-03 6.771077189412749719e-01 7.358244083913934031e-01
1.750183105468750000e-02 2.760314941406250000e-02 -2.288818359375000000e-01 2.634193552668048430e-02 6.705701338498588626e-01 7.413783096512134296e-01
1.856994628906250000e-02 2.760314941406250000e-02 -2.288818359375000000e-01 6.710539961374729911e-02 6.630030637097298341e-01 7.456029793758814916e-01
1.965332031250000000e-02 2.760314941406250000e-02 -2.288818359375000000e-01 6.730777449891599262e-02 6.880714257529139122e-01 7.225146203049147564e-01
2.072143554687500000e-02 2.760314941406250000e-02 -2.288818359375000000e-01 -7.258685561560157540e-02 -6.785317312048639860e-01 -7.309759490844890406e-01
2.189636230468750000e-02 2.772521972656250000e-02 -2.298583984375000000e-01 -2.077397886669532789e-01 -6.953712062880711420e-01 -6.879702505705335147e-01
2.520751953125000000e-02 2.906799316406250000e-02 -2.408447265625000000e-01 1.659935407807703323e-01 -7.421495861132521021e-01 6.493536295817491366e-01
2.644348144531250000e-02 2.919006347656250000e-02 -2.419433593750000000e-01 1.319674051946967408e-01 -7.364910049355926080e-01 6.634497747494828568e-01
2.758789062500000000e-02 2.919006347656250000e-02 -2.419433593750000000e-01 1.333213530622021914e-01 -7.687569977748839323e-01 6.254902838492463202e-01
2.871704101562500000e-02 2.919006347656250000e-02 -2.419433593750000000e-01 9.848907656942193500e-02 -7.460305722038148568e-01 6.585881012694893011e-01
2.986145019531250000e-02 2.919006347656250000e-02 -2.419433593750000000e-01 1.220511354778631152e-01 -7.351168150921434385e-01 6.668633956796157225e-01
3.099060058593750000e-02 2.919006347656250000e-02 -2.419433593750000000e-01 -1.268426377940404248e-01 7.230990002605489630e-01 -6.789983660213358974e-01
3.225708007812500000e-02 2.931213378906250000e-02 -2.429199218750000000e-01 -1.245701431780294188e-01 7.064316539509157833e-01 -6.967328022454368774e-01
3.338623046875000000e-02 2.931213378906250000e-02 -2.429199218750000000e-01 -1.115776384840277691e-01 6.959089341705175791e-01 -7.094090399282924064e-01
3.454589843750000000e-02 2.931213378906250000e-02 -2.429199218750000000e-01 -8.324041536074641701e-02 6.910695885812021544e-01 -7.179790087382628139e-01
3.567504882812500000e-02 2.931213378906250000e-02 -2.429199218750000000e-01 -3.700486493479128447e-02 7.064349333848503054e-01 -7.068099637559590587e-01
3.683471679687500000e-02 2.931213378906250000e-02 -2.429199218750000000e-01 -6.381315523514702326e-05 7.162048035187544848e-01 -6.978901599424828239e-01
3.796386718750000000e-02 2.931213378906250000e-02 -2.429199218750000000e-01 8.878491728005893924e-06 7.160421190042390860e-01 -6.980570777043176856e-01
3.909301757812500000e-02 2.931213378906250000e-02 -2.429199218750000000e-01 1.328142189492911851e-05 7.160424939021959867e-01 -6.980566930772368339e-01
4.025268554687500000e-02 2.931213378906250000e-02 -2.429199218750000000e-01 4.199851341062672133e-04 7.166655220776432245e-01 -6.974169148204439894e-01
4.138183593750000000e-02 2.931213378906250000e-02 -2.429199218750000000e-01 4.187352269947892253e-04 7.166666372260314111e-01 -6.974157696438627596e-01
4.251098632812500000e-02 2.931213378906250000e-02 -2.429199218750000000e-01 4.147577541392145906e-04 7.166675877238846137e-01 -6.974147952847240539e-01
4.367065429687500000e-02 2.931213378906250000e-02 -2.429199218750000000e-01 4.114551621414164195e-04 7.166685030207569085e-01 -6.974138566752432489e-01
4.479980468750000000e-02 2.931213378906250000e-02 -2.429199218750000000e-01 4.099383994408270851e-04 7.166695952128926406e-01 -6.974127352206132002e-01
4.595947265625000000e-02 2.931213378906250000e-02 -2.429199218750000000e-01 4.068978584456286324e-04 7.166704796233670516e-01 -6.974118281693724164e-01
4.708862304687500000e-02 2.931213378906250000e-02 -2.429199218750000000e-01 4.043160144288852204e-04 7.166714746741349451e-01 -6.974108071409286236e-01
4.821777343750000000e-02 2.931213378906250000e-02 -2.429199218750000000e-01 4.061887158232904346e-04 7.166723221968611668e-01 -6.974099351225829801e-01
4.937744140625000000e-02 2.931213378906250000e-02 -2.429199218750000000e-01 4.066683895558153433e-04 7.166729664241854314e-01 -6.974092728216189085e-01
5.050659179687500000e-02 2.931213378906250000e-02 -2.429199218750000000e-01 4.829417189032075841e-02 6.931993184448496104e-01 -7.191261209753294636e-01
5.166625976562500000e-02 2.931213378906250000e-02 -2.429199218750000000e-01 9.417851000966723229e-02 6.900385553451009457e-01 -7.176191193032730453e-01
5.279541015625000000e-02 2.931213378906250000e-02 -2.429199218750000000e-01 1.495454017096851940e-01 6.792118366113920613e-01 -7.185453735391168495e-01
5.392456054687500000e-02 2.931213378906250000e-02 -2.429199218750000000e-01 2.315210541909638597e-01 6.890679216223084547e-01 -6.867193028140514688e-01
5.484008789062500000e-02 2.919006347656250000e-02 -2.419433593750000000e-01 -3.487314255520674311e-01 -6.842396958686634001e-01 6.404704766263482618e-01
5.596923828125000000e-02 2.919006347656250000e-02 -2.419433593750000000e-01 -4.667892705358215322e-01 -6.690781508773375741e-01 5.783097828423776621e-01
5.688476562500000000e-02 2.906799316406250000e-02 -2.408447265625000000e-01 -5.314938382678879858e-01 -6.344639268205154448e-01 5.612217257437203122e-01
5.776977539062500000e-02 2.894592285156250000e-02 -2.398681640625000000e-01 6.331400739505530506e-01 5.592682825260668622e-01 -5.351192716752326550e-01
5.841064453125000000e-02 2.870178222656250000e-02 -2.379150390625000000e-01 7.549861878121656433e-01 4.058841163438058341e-01 -5.150280966245058822e-01
5.941772460937500000e-02 2.760314941406250000e-02 -2.288818359375000000e-01 1.162034155377691669e-01 -6.653399930111189020e-01 -7.374411569185171933e-01
6.048583984375000000e-02 2.760314941406250000e-02 -2.288818359375000000e-01 8.393371745239697201e-02 -6.425738416687549748e-01 -7.616127553275872097e-01
6.155395507812500000e-02 2.760314941406250000e-02 -2.288818359375000000e-01 -8.340412529338295244e-02 6.621887589398163243e-01 7.446810051409874509e-01
6.262207031250000000e-02 2.760314941406250000e-02 -2.288818359375000000e-01 -9.376159207518686145e-02 6.636700965196018487e-01 7.421258429924058042e-01
6.341552734375000000e-02 2.749633789062500000e-02 -2.277832031250000000e-01 -1.521354228135974596e-01 6.405143185216319868e-01 7.527258603861682884e-01
6.451416015625000000e-02 2.749633789062500000e-02 -2.277832031250000000e-01 -1.264318075914744044e-01 6.502992780681262630e-01 7.490833378024278622e-01
6.555175781250000000e-02 2.749633789062500000e-02 -2.277832031250000000e-01 -6.671284076036172565e-03 6.320326381216015976e-01 7.749130521018634532e-01
6.665039062500000000e-02 2.749633789062500000e-02 -2.277832031250000000e-01 1.194419673585600666e-01 6.135269409021563147e-01 7.805884377959737552e-01
6.768798828125000000e-02 2.749633789062500000e-02 -2.277832031250000000e-01 1.473941632000875246e-01 6.225031265239863165e-01 7.686122677412896564e-01
6.909179687500000000e-02 2.760314941406250000e-02 -2.288818359375000000e-01 1.342050580920962632e-01 6.371578487187795625e-01 7.589590754438304554e-01
7.012939453125000000e-02 2.760314941406250000e-02 -2.288818359375000000e-01 1.017459602102371713e-01 6.424291273905730071e-01 7.595607782535139796e-01
7.122802734375000000e-02 2.760314941406250000e-02 -2.288818359375000000e-01 4.420243467927446185e-02 6.486757313923968704e-01 7.597801920759474914e-01
7.232666015625000000e-02 2.760314941406250000e-02 -2.288818359375000000e-01 1.667557181331686192e-02 6.374785734224245326e-01 7.702876045556030782e-01
7.336425781250000000e-02 2.760314941406250000e-02 -2.288818359375000000e-01 7.440444076680609309e-02 6.124103587648448421e-01 7.870308327325511444e-01
7.446289062500000000e-02 2.760314941406250000e-02 -2.288818359375000000e-01 1.193893727486776274e-01 6.030204410099201384e-01 7.887411016289683774e-01
7.550048828125000000e-02 2.760314941406250000e-02 -2.288818359375000000e-01 1.368246878782358178e-01 6.052150368631425970e-01 7.842153810923170321e-01
7.690429687500000000e-02 2.772521972656250000e-02 -2.298583984375000000e-01 1.369997821949355543e-01 5.990315370189464028e-01 7.889184224843902582e-01
7.800292968750000000e-02 2.772521972656250000e-02 -2.298583984375000000e-01 9.105017994912664725e-02 6.197407286294015494e-01 7.795070840018902825e-01
7.910156250000000000e-02 2.772521972656250000e-02 -2.298583984375000000e-01 -6.377088892654389149e-03 6.275568883210687066e-01 7.785445938788816411e-01
8.020019531250000000e-02 2.772521972656250000e-02 -2.298583984375000000e-01 -4.337879769244068484e-02 6.034356197173295078e-01 7.962309544140573347e-01
8.123779296875000000e-02 2.772521972656250000e-02 -2.298583984375000000e-01 8.990749527861303936e-02 -6.120331037724281442e-01 -7.857048569147415673e-01
8.197021484375000000e-02 2.760314941406250000e-02 -2.288818359375000000e-01 7.862644999074124008e-02 -5.840854932326779991e-01 -8.078750014432877213e-01
-9.191894531250000000e-02 2.711486816406250000e-02 -2.338867187500000000e-01 6.182194567046801481e-01 -4.486571087082728004e-01 -6.453770232641564686e-01
-8.807373046875000000e-02 2.630615234375000000e-02 -2.268066406250000000e-01 1.215166287215027341e-01 -6.053145077969417365e-01 -7.866562499559175414e-01
-8.740234375000000000e-02 2.641296386718750000e-02 -2.277832031250000000e-01 1.045154676771683777e-01 -6.142005478166396859e-01 -7.821983150569699061e-01
-8.599853515625000000e-02 2.630615234375000000e-02 -2.268066406250000000e-01 -8.476665263997931743e-02 6.030860118739962417e-01 7.931594271532874663e-01
-8.489990234375000000e-02 2.630615234375000000e-02 -2.268066406250000000e-01 -5.268885881047274261e-02 6.260569127893678143e-01 7.779952609790731222e-01
-8.386230468750000000e-02 2.630615234375000000e-02 -2.268066406250000000e-01 -5.784201612923701996e-02 6.346264454499263019e-01 7.706513971347204173e-01
-8.276367187500000000e-02 2.630615234375000000e-02 -2.268066406250000000e-01 2.275746780847039466e-04 6.446989907854719926e-01 7.644364980101092666e-01
-8.172607421875000000e-02 2.630615234375000000e-02 -2.268066406250000000e-01 -1.726114522128611647e-02 6.333295363171744796e-01 7.736896996173093788e-01
-8.062744140625000000e-02 2.630615234375000000e-02 -2.268066406250000000e-01 -2.753692618650250418e-02 6.220606854415274833e-01 7.824846460629217848e-01
-7.958984375000000000e-02 2.630615234375000000e-02 -2.268066406250000000e-01 -3.281305019684807589e-02 6.047090153177666627e-01 7.957702624063029972e-01
-7.849121093750000000e-02 2.630615234375000000e-02 -2.268066406250000000e-01 -2.937886046551066443e-02 5.887408755517244963e-01 8.077877592612660029e-01
-7.745361328125000000e-02 2.630615234375000000e-02 -2.268066406250000000e-01 -5.449626971454996256e-03 5.822103591347440599e-01 8.130199255135535097e-01
-7.635498046875000000e-02 2.630615234375000000e-02 -2.268066406250000000e-01 1.464683444500317067e-02 5.910877108735835828e-01 8.064742948755202478e-01
-7.531738281250000000e-02 2.630615234375000000e-02 -2.268066406250000000e-01 2.195329512512352033e-02 6.082136439930330152e-01 7.934697323111105094e-01
-7.427978515625000000e-02 2.630615234375000000e-02 -2.268066406250000000e-01 2.138728997037078056e-02 6.229429363515123219e-01 7.819748601313721847e-01
-7.318115234375000000e-02 2.630615234375000000e-02 -2.268066406250000000e-01 1.385070274138330317e-02 6.354792670175173352e-01 7.719936911817664171e-01
-7.214355468750000000e-02 2.630615234375000000e-02 -2.268066406250000000e-01 2.020895116335778841e-02 6.411128508186841879e-01 7.671804942828099882e-01
-7.104492187500000000e-02 2.630615234375000000e-02 -2.268066406250000000e-01 8.637604511220389747e-02 6.423079880620549131e-01 7.615639351377203603e-01
-7.000732421875000000e-02 2.630615234375000000e-02 -2.268066406250000000e-01 1.746478207031616214e-01 6.294572059794583119e-01 7.571537258471163767e-01
-6.890869140625000000e-02 2.630615234375000000e-02 -2.268066406250000000e-01 2.495655470357718286e-01 6.264468119398139967e-01 7.384317365492758523e-01
-6.817626953125000000e-02 2.641296386718750000e-02 -2.277832031250000000e-01 3.412653109011387076e-01 6.194519090418088014e-01 7.069775950905430317e-01
-6.707763671875000000e-02 2.641296386718750000e-02 -2.277832031250000000e-01 4.393737207825197943e-01 5.844200047964704936e-01 6.822052414628735351e-01
-6.628417968750000000e-02 2.653503417968750000e-02 -2.288818359375000000e-01 4.968552657348634383e-01 5.694601995934989169e-01 6.548663420809398561e-01
-6.549072265625000000e-02 2.665710449218750000e-02 -2.298583984375000000e-01 5.783788400818000719e-01 5.327497856930691889e-01 6.177827961262924994e-01
-6.469726562500000000e-02 2.676391601562500000e-02 -2.308349609375000000e-01 6.964161187760067317e-01 4.680422906794770577e-01 5.440045989184932873e-01
-6.390380859375000000e-02 2.688598632812500000e-02 -2.318115234375000000e-01 7.667889320614796889e-01 3.969255546244012667e-01 5.044649024006794269e-01
-6.335449218750000000e-02 2.711486816406250000e-02 -2.338867187500000000e-01 8.724975545642648100e-01 9.379615464382572154e-02 4.795313322958251745e-01
-6.256103515625000000e-02 2.723693847656250000e-02 -2.348632812500000000e-01 8.570398966802725838e-01 -5.677985586906971610e-02 5.121119637986946138e-01
-6.198120117187500000e-02 2.746582031250000000e-02 -2.368164062500000000e-01 7.467541170283534813e-01 -3.886674766966308758e-01 5.397183351151578767e-01
-6.112670898437500000e-02 2.758789062500000000e-02 -2.379150390625000000e-01 5.909910014198628270e-01 -5.077413052968579033e-01 6.268400139877723376e-01
-6.027221679687500000e-02 2.769470214843750000e-02 -2.388916015625000000e-01 3.377307160112068551e-01 -5.841144763950614216e-01 7.380706212336869410e-01
-5.914306640625000000e-02 2.769470214843750000e-02 -2.388916015625000000e-01 2.971453147775489079e-01 -5.853837216516226682e-01 7.543411432044834219e-01
-5.801391601562500000e-02 2.769470214843750000e-02 -2.388916015625000000e-01 2.046574063403796828e-01 -6.004546155356028647e-01 7.730262613339989874e-01
-5.688476562500000000e-02 2.769470214843750000e-02 -2.388916015625000000e-01 1.568096977157254490e-01 -5.922938409921512104e-01 7.903155854625841803e-01
-5.599975585937500000e-02 2.781677246093750000e-02 -2.398681640625000000e-01 1.554158599313703593e-01 -6.213975265833718842e-01 7.679264446793458987e-01
-5.487060546875000000e-02 2.781677246093750000e-02 -2.398681640625000000e-01 1.411947285648406936e-01 -6.349653176857732451e-01 7.595282048493696703e-01
-5.374145507812500000e-02 2.781677246093750000e-02 -2.398681640625000000e-01 9.502355785833759005e-02 -6.419555671287463516e-01 7.608308440674266260e-01
-5.261230468750000000e-02 2.781677246093750000e-02 -2.398681640625000000e-01 4.390188481494163020e-02 -6.658389146278987925e-01 7.448027687091645088e-01
-5.148315429687500000e-02 2.781677246093750000e-02 -2.398681640625000000e-01 -1.381388906845719281e-03 -6.689402649735053386e-01 7.433148819052829426e-01
-5.038452148437500000e-02 2.781677246093750000e-02 -2.398681640625000000e-01 1.812588716525509458e-02 -6.594002966007388444e-01 7.515734834713969637e-01
-4.925537109375000000e-02 2.781677246093750000e-02 -2.398681640625000000e-01 4.977610217525089975e-02 -6.552699618501576229e-01 7.537530210547297438e-01
-4.812622070312500000e-02 2.781677246093750000e-02 -2.398681640625000000e-01 6.778938850093306490e-02 -6.336031155635362122e-01 7.706826135023741031e-01
-4.699707031250000000e-02 2.781677246093750000e-02 -2.398681640625000000e-01 6.908660148787723609e-02 -6.103005140470577627e-01 7.891516483216343136e-01
-4.586791992187500000e-02 2.781677246093750000e-02 -2.398681640625000000e-01 5.305035899680272948e-02 -5.857339907675922497e-01 8.087653253384323726e-01
-4.473876953125000000e-02 2.781677246093750000e-02 -2.398681640625000000e-01 3.608033920708966780e-02 -5.811627785270120361e-01 8.129871056649449201e-01
-4.360961914062500000e-02 2.781677246093750000e-02 -2.398681640625000000e-01 -3.465606658729550055e-03 -5.846153059741338032e-01 8.113032315917746429e-01
-4.248046875000000000e-02 2.781677246093750000e-02 -2.398681640625000000e-01 -4.121007139825307031e-02 -5.859312978950695916e-01 8.093122043824312328e-01
-4.135131835937500000e-02 2.781677246093750000e-02 -2.398681640625000000e-01 -1.175638673608148249e-01 -5.996006428329132554e-01 7.916172093919675579e-01
