-1.375732421875000000e-01 -8.666992187500000000e-02 -3.061523437500000000e-01 3.879701687281790490e-02 5.229395820714385357e-01 8.514863386952954416e-01
-1.361083984375000000e-01 -8.666992187500000000e-02 -3.061523437500000000e-01 3.064132375808859346e-02 5.160224187630112480e-01 8.560268527402183913e-01
-1.346435546875000000e-01 -8.666992187500000000e-02 -3.061523437500000000e-01 -5.280819018196365386e-03 5.158639483120158742e-01 8.566542475132163936e-01
-1.333007812500000000e-01 -8.666992187500000000e-02 -3.061523437500000000e-01 -3.884838357076860621e-02 5.147256871007749313e-01 8.564743254368888392e-01
-1.318359375000000000e-01 -8.666992187500000000e-02 -3.061523437500000000e-01 -3.979130412545380663e-02 5.216228238480740131e-01 8.522477819019281808e-01
-1.303710937500000000e-01 -8.666992187500000000e-02 -3.061523437500000000e-01 -3.218462665353437335e-02 5.286342407831920998e-01 8.482393466933437765e-01
-1.289062500000000000e-01 -8.666992187500000000e-02 -3.061523437500000000e-01 9.259999295349587113e-04 5.502118461846865483e-01 8.350245905613614683e-01
-1.275634765625000000e-01 -8.666992187500000000e-02 -3.061523437500000000e-01 9.290232406750016311e-03 5.424626644349187510e-01 8.400285407508469859e-01
-1.260986328125000000e-01 -8.666992187500000000e-02 -3.061523437500000000e-01 9.488974198546763078e-03 5.424425075597254509e-01 8.400393356033851733e-01
-1.246337890625000000e-01 -8.666992187500000000e-02 -3.061523437500000000e-01 9.487520883778716163e-03 5.424319507780034355e-01 8.400461688042208941e-01
-1.232299804687500000e-01 -8.666992187500000000e-02 -3.061523437500000000e-01 9.501203933692352332e-03 5.424012966422389059e-01 8.400658072583530034e-01
-1.217651367187500000e-01 -8.666992187500000000e-02 -3.061523437500000000e-01 9.435076464692462167e-03 5.423709430033273327e-01 8.400861500571157325e-01
-1.203613281250000000e-01 -8.666992187500000000e-02 -3.061523437500000000e-01 9.613941297390000626e-03 5.423577529052966417e-01 8.400926377467233808e-01
-1.188964843750000000e-01 -8.666992187500000000e-02 -3.061523437500000000e-01 9.602848664840468035e-03 5.423471049258715704e-01 8.400996387786663355e-01
-1.174926757812500000e-01 -8.666992187500000000e-02 -3.061523437500000000e-01 3.863328114747645813e-04 5.594977378006333879e-01 8.288317876040542931e-01
-1.160278320312500000e-01 -8.666992187500000000e-02 -3.061523437500000000e-01 -1.674076821620121974e-02 5.785954151797930711e-01 8.154428810238362191e-01
-1.146240234375000000e-01 -8.666992187500000000e-02 -3.061523437500000000e-01 -2.185080235028354426e-02 5.959576064197997791e-01 8.027185520386531659e-01
-1.131591796875000000e-01 -8.666992187500000000e-02 -3.061523437500000000e-01 -1.600051883890958593e-02 6.119986329113974444e-01 7.906969436588623390e-01
-1.116943359375000000e-01 -8.666992187500000000e-02 -3.061523437500000000e-01 1.754654681605745392e-02 6.136546659242479995e-01 7.893795472928289980e-01
-1.102905273437500000e-01 -8.666992187500000000e-02 -3.061523437500000000e-01 9.751462435518556959e-02 6.035054679136854228e-01 7.913735200492562072e-01
-1.088256835937500000e-01 -8.666992187500000000e-02 -3.061523437500000000e-01 1.453836291780481182e-01 5.883692664012609708e-01 7.954151159749617284e-01
-1.074218750000000000e-01 -8.666992187500000000e-02 -3.061523437500000000e-01 1.549833755098463384e-01 5.755187671293626739e-01 8.029684315074114842e-01
-1.063232421875000000e-01 -8.697509765625000000e-02 -3.071289062500000000e-01 1.414382197832414756e-01 5.646300937293214917e-01 8.131347288363505177e-01
-1.048583984375000000e-01 -8.697509765625000000e-02 -3.071289062500000000e-01 1.023304617613544493e-01 5.561802213323158162e-01 8.247375570412956991e-01
-1.034545898437500000e-01 -8.697509765625000000e-02 -3.071289062500000000e-01 3.146564596362666499e-02 5.490168818834089137e-01 8.352187596858148266e-01
-1.019897460937500000e-01 -8.697509765625000000e-02 -3.071289062500000000e-01 -1.614854964998224977e-03 5.465156623746955100e-01 8.374473255211875022e-01
-1.005249023437500000e-01 -8.697509765625000000e-02 -3.071289062500000000e-01 -2.997873292869539241e-03 5.416692544938710441e-01 8.405863617093569662e-01
-9.912109375000000000e-02 -8.697509765625000000e-02 -3.071289062500000000e-01 1.042100224450747542e-02 5.300400561231352059e-01 8.479085691377363787e-01
-9.765625000000000000e-02 -8.697509765625000000e-02 -3.071289062500000000e-01 1.055363692472267162e-02 5.300274063896981414e-01 8.479148360675564655e-01
-9.619140625000000000e-02 -8.697509765625000000e-02 -3.071289062500000000e-01 1.061551023120675154e-02 5.299922809689653347e-01 8.479360194353371405e-01
-9.478759765625000000e-02 -8.697509765625000000e-02 -3.071289062500000000e-01 1.050284494999048808e-02 5.299616532039678196e-01 8.479565651501697054e-01
-9.332275390625000000e-02 -8.697509765625000000e-02 -3.071289062500000000e-01 -1.477157164803926878e-02 5.243500806663575764e-01 8.513746493619780420e-01
-9.191894531250000000e-02 -8.697509765625000000e-02 -3.071289062500000000e-01 -3.087505637270974643e-02 5.179871480822227925e-01 8.548310039508553171e-01
-9.045410156250000000e-02 -8.697509765625000000e-02 -3.071289062500000000e-01 -3.826734654717921930e-02 5.112834402355669328e-01 8.585597555960339244e-01
-8.898925781250000000e-02 -8.697509765625000000e-02 -3.071289062500000000e-01 -5.128839434447896722e-02 5.060668071524350164e-01 8.609679943552520642e-01
-8.758544921875000000e-02 -8.697509765625000000e-02 -3.071289062500000000e-01 -6.033139617104253671e-02 5.004809218995605047e-01 8.636428483178788529e-01
-8.612060546875000000e-02 -8.697509765625000000e-02 -3.071289062500000000e-01 -8.100014437856516147e-02 5.109793647220460810e-01 8.557681142920119388e-01
-8.441162109375000000e-02 -8.666992187500000000e-02 -3.061523437500000000e-01 -1.010833668711194067e-01 5.543721593257050495e-01 8.261075365269062720e-01
-8.294677734375000000e-02 -8.666992187500000000e-02 -3.061523437500000000e-01 -9.693482435315863011e-02 5.786419776997978603e-01 8.098006553907504124e-01
-8.154296875000000000e-02 -8.666992187500000000e-02 -3.061523437500000000e-01 -4.799295457612833687e-02 5.871352595534959917e-01 8.080648880505219012e-01
-8.007812500000000000e-02 -8.666992187500000000e-02 -3.061523437500000000e-01 2.591495022439614659e-02 5.991626707807919949e-01 8.002077913252876318e-01
-7.867431640625000000e-02 -8.666992187500000000e-02 -3.061523437500000000e-01 3.523389587937934136e-02 5.777692136691038316e-01 8.154393345414154837e-01
-7.720947265625000000e-02 -8.666992187500000000e-02 -3.061523437500000000e-01 2.841117765057299405e-02 5.597937350577736337e-01 8.281447815295189807e-01
-7.574462890625000000e-02 -8.666992187500000000e-02 -3.061523437500000000e-01 1.119263504742501469e-02 5.416122212838986316e-01 8.405539403730235559e-01
-7.434082031250000000e-02 -8.666992187500000000e-02 -3.061523437500000000e-01 -2.552794317266226468e-03 5.536511181585733743e-01 8.327448124143044250e-01
-7.287597656250000000e-02 -8.666992187500000000e-02 -3.061523437500000000e-01 -6.525016867298591428e-02 5.395031588977557968e-01 8.394514619842471381e-01
-7.147216796875000000e-02 -8.666992187500000000e-02 -3.061523437500000000e-01 -1.462447361882303898e-01 4.980453665706058852e-01 8.547299514904022066e-01
-7.000732421875000000e-02 -8.666992187500000000e-02 -3.061523437500000000e-01 -2.328170710048663161e-01 4.185274495005664175e-01 8.778559024482696094e-01
-6.835937500000000000e-02 -8.642578125000000000e-02 -3.051757812500000000e-01 -2.482650087114415260e-01 3.687868948303362204e-01 8.957458968094169638e-01
-6.689453125000000000e-02 -8.642578125000000000e-02 -3.051757812500000000e-01 -3.179148771113108340e-01 3.127717297589857059e-01 8.950441195689026186e-01
-6.524658203125000000e-02 -8.612060546875000000e-02 -3.039550781250000000e-01 -4.028708341983657792e-01 7.487909587701611913e-02 9.121886931731578718e-01
-6.384277343750000000e-02 -8.612060546875000000e-02 -3.039550781250000000e-01 -4.067171155569763719e-01 3.289598435253986847e-02 9.129616871076741136e-01
-6.222534179687500000e-02 -8.581542968750000000e-02 -3.029785156250000000e-01 -3.868991063919843820e-01 -9.951334359170760369e-02 9.167366993419009402e-01
-6.060791015625000000e-02 -8.557128906250000000e-02 -3.020019531250000000e-01 -3.019459242997835635e-01 -2.409496113941405615e-01 9.223729959012036961e-01
-5.917358398437500000e-02 -8.557128906250000000e-02 -3.020019531250000000e-01 -2.307941799174791919e-01 -2.648670935621630917e-01 9.362582278752751286e-01
-5.758666992187500000e-02 -8.526611328125000000e-02 -3.010253906250000000e-01 -1.841915688288342512e-01 -3.276805948082412989e-01 9.266600745464811384e-01
-5.615234375000000000e-02 -8.526611328125000000e-02 -3.010253906250000000e-01 -1.662516549226806251e-01 -3.543348072360396062e-01 9.202212949157764221e-01
-5.474853515625000000e-02 -8.526611328125000000e-02 -3.010253906250000000e-01 -1.462293322109143590e-01 -3.764420707655364295e-01 9.148269507174047188e-01
-5.316162109375000000e-02 -8.496093750000000000e-02 -3.000488281250000000e-01 -1.110821154260456245e-01 -3.979297477428889174e-01 9.106660636554737565e-01
-5.172729492187500000e-02 -8.496093750000000000e-02 -3.000488281250000000e-01 -9.495547802475784449e-02 -3.749482908562122296e-01 9.221698522382387742e-01
-5.032348632812500000e-02 -8.496093750000000000e-02 -3.000488281250000000e-01 -5.707957253996492897e-02 -3.995942533471557034e-01 9.149133046855226770e-01
-4.891967773437500000e-02 -8.496093750000000000e-02 -3.000488281250000000e-01 -5.506880804679992886e-02 -4.039500621067678154e-01 9.131219927831346617e-01
-4.751586914062500000e-02 -8.496093750000000000e-02 -3.000488281250000000e-01 -8.681758387191278181e-02 -3.981896958584127955e-01 9.131854539154838912e-01
-4.611206054687500000e-02 -8.496093750000000000e-02 -3.000488281250000000e-01 -1.002373445740013663e-01 -4.237687909629138661e-01 9.002069131919523404e-01
-4.455566406250000000e-02 -8.471679687500000000e-02 -2.990722656250000000e-01 -7.916160026142958495e-02 -4.763478513214975951e-01 8.756861113352444326e-01
-4.315185546875000000e-02 -8.471679687500000000e-02 -2.990722656250000000e-01 -9.826746891418569954e-03 -5.061791353367710578e-01 8.623723778016378905e-01
-4.174804687500000000e-02 -8.471679687500000000e-02 -2.990722656250000000e-01 4.005842360752747550e-02 -5.124949794820660154e-01 8.577553373216377786e-01
-4.031372070312500000e-02 -8.471679687500000000e-02 -2.990722656250000000e-01 9.838085744126899568e-02 -4.994467212505013798e-01 8.607404832591787347e-01
-3.906250000000000000e-02 -8.496093750000000000e-02 -3.000488281250000000e-01 1.036158232067283524e-01 -4.663217526361905785e-01 8.785259154968073636e-01
-3.765869140625000000e-02 -8.496093750000000000e-02 -3.000488281250000000e-01 1.387835758985606072e-01 -4.529615369384858425e-01 8.806616632482267004e-01
-3.622436523437500000e-02 -8.496093750000000000e-02 -3.000488281250000000e-01 1.284192629509631756e-01 -4.745772425069751388e-01 8.707955752055743792e-01
-3.482055664062500000e-02 -8.496093750000000000e-02 -3.000488281250000000e-01 1.061473558958232061e-01 -4.674310041535332805e-01 8.776337477515008256e-01
-3.353881835937500000e-02 -8.526611328125000000e-02 -3.010253906250000000e-01 1.507461965562837125e-01 -4.223584466591988607e-01 8.938058663711281326e-01
-3.210449218750000000e-02 -8.526611328125000000e-02 -3.010253906250000000e-01 1.669656673673307057e-01 -4.082257303128025705e-01 8.974821552717140438e-01
-3.070068359375000000e-02 -8.526611328125000000e-02 -3.010253906250000000e-01 2.149683502775166510e-01 -4.009015357606072749e-01 8.905428496168780184e-01
-2.938842773437500000e-02 -8.557128906250000000e-02 -3.020019531250000000e-01 2.320394915760234933e-01 -3.439426640689866033e-01 9.098687367869437992e-01
-2.796936035156250000e-02 -8.557128906250000000e-02 -3.020019531250000000e-01 2.508194748647542549e-01 -3.090024814199719971e-01 9.173914418092578016e-01
-2.664184570312500000e-02 -8.581542968750000000e-02 -3.029785156250000000e-01 2.647932150253832218e-01 -2.341121880708126046e-01 9.354549891219875457e-01
-2.520751953125000000e-02 -8.581542968750000000e-02 -3.029785156250000000e-01 2.643106212626489260e-01 -1.840294406751065148e-01 9.467169906854741024e-01
-2.386474609375000000e-02 -8.612060546875000000e-02 -3.039550781250000000e-01 2.930667094281800278e-01 -8.896791813183738129e-02 9.519435977872982013e-01
-2.244567871093750000e-02 -8.612060546875000000e-02 -3.039550781250000000e-01 2.969721451867176065e-01 6.482950275256474208e-03 9.548641350155150365e-01
-2.108764648437500000e-02 -8.642578125000000000e-02 -3.051757812500000000e-01 3.190864976449299673e-01 9.862673290384005309e-02 9.425797444128568570e-01
-1.965332031250000000e-02 -8.642578125000000000e-02 -3.051757812500000000e-01 2.970097945054442912e-01 1.797655872284618095e-01 9.378003602133239136e-01
-1.821899414062500000e-02 -8.642578125000000000e-02 -3.051757812500000000e-01 3.042467437998283564e-01 1.453481985589736014e-01 9.414392280242324107e-01
-1.683044433593750000e-02 -8.666992187500000000e-02 -3.061523437500000000e-01 2.523815736587469716e-01 2.080813457615205975e-01 9.449897855657535262e-01
-1.540374755859375000e-02 -8.666992187500000000e-02 -3.061523437500000000e-01 2.456534735369721445e-01 2.513327186065800745e-01 9.362084359249523979e-01
-1.396179199218750000e-02 -8.666992187500000000e-02 -3.061523437500000000e-01 1.752749537645923450e-01 2.911761828664493068e-01 9.404760077291414166e-01
-1.256561279296875000e-02 -8.697509765625000000e-02 -3.071289062500000000e-01 9.960093961553555253e-02 2.712578772726091936e-01 9.573394470329010808e-01
-1.112365722656250000e-02 -8.697509765625000000e-02 -3.071289062500000000e-01 5.872820959564872129e-02 3.408230033898113631e-01 9.382913608032625863e-01
-9.681701660156250000e-03 -8.697509765625000000e-02 -3.071289062500000000e-01 5.293221898951406407e-02 3.615269191425191098e-01 9.308579198396307319e-01
-8.239746093750000000e-03 -8.697509765625000000e-02 -3.071289062500000000e-01 2.241051781832758064e-02 4.079468545632822241e-01 9.127305914359606920e-01
-6.801605224609375000e-03 -8.697509765625000000e-02 -3.071289062500000000e-01 1.964325046300938182e-02 4.175317621098131871e-01 9.084499822999182461e-01
-5.355834960937500000e-03 -8.697509765625000000e-02 -3.071289062500000000e-01 -5.462200994358020791e-03 4.358238286491102897e-01 9.000154191689874184e-01
-3.913879394531250000e-03 -8.697509765625000000e-02 -3.071289062500000000e-01 -2.685104220778911435e-02 4.220456898771483001e-01 9.061768354954111704e-01
-2.471923828125000000e-03 -8.697509765625000000e-02 -3.071289062500000000e-01 -2.610669965883685370e-02 4.098047220040836325e-01 9.117996106909012077e-01
-1.030921936035156250e-03 -8.697509765625000000e-02 -3.071289062500000000e-01 -2.739580466275390661e-02 3.631868764514681880e-01 9.313134610110099798e-01
4.115104675292968750e-04 -8.697509765625000000e-02 -3.071289062500000000e-01 -4.428372074627051624e-02 3.169437856993626013e-01 9.474099370301236611e-01
1.853942871093750000e-03 -8.697509765625000000e-02 -3.071289062500000000e-01 -5.003866704167198032e-02 3.000695673459155555e-01 9.526040030114967250e-01
3.295898437500000000e-03 -8.697509765625000000e-02 -3.071289062500000000e-01 -4.717853146790637608e-02 2.978671301637806912e-01 9.534407999118377219e-01
4.722595214843750000e-03 -8.666992187500000000e-02 -3.061523437500000000e-01 -1.009788253865041840e-01 3.104075027448205404e-01 9.452250838098226193e-01
6.160736083984375000e-03 -8.666992187500000000e-02 -3.061523437500000000e-01 -1.366574575303168837e-01 2.660836813102274712e-01 9.542139245691959593e-01
7.598876953125000000e-03 -8.666992187500000000e-02 -3.061523437500000000e-01 -1.726797060682713769e-01 2.034168454645388924e-01 9.637444194875689485e-01
9.033203125000000000e-03 -8.666992187500000000e-02 -3.061523437500000000e-01 -1.829937637316987886e-01 1.906243843187521159e-01 9.644561299190357317e-01
1.047515869140625000e-02 -8.666992187500000000e-02 -3.061523437500000000e-01 -2.184288317298272442e-01 2.249981893750319650e-01 9.495602457175110755e-01
1.187133789062500000e-02 -8.642578125000000000e-02 -3.051757812500000000e-01 -3.091158666441654046e-01 1.575999602747743811e-01 9.378750628469744166e-01
1.330566406250000000e-02 -8.642578125000000000e-02 -3.051757812500000000e-01 -3.275145356241541128e-01 1.136516188049515735e-01 9.379858946156433008e-01
1.468658447265625000e-02 -8.612060546875000000e-02 -3.039550781250000000e-01 -3.044277793436250823e-01 4.646726674457638678e-02 9.514013455346789216e-01
1.611328125000000000e-02 -8.612060546875000000e-02 -3.039550781250000000e-01 -3.323236444758324026e-01 -3.885618193760597555e-02 9.423646812394509409e-01
1.748657226562500000e-02 -8.581542968750000000e-02 -3.029785156250000000e-01 -2.769887539994522752e-01 -1.202816721684306922e-01 9.533150316124239243e-01
1.890563964843750000e-02 -8.581542968750000000e-02 -3.029785156250000000e-01 -2.797519662205112390e-01 -1.704393991564535360e-01 9.448223370618124006e-01
2.026367187500000000e-02 -8.557128906250000000e-02 -3.020019531250000000e-01 -2.813790838198301225e-01 -2.203499593924821143e-01 9.339548739550773693e-01
2.168273925781250000e-02 -8.557128906250000000e-02 -3.020019531250000000e-01 -2.915890335419908941e-01 -2.520678173061565719e-01 9.227337920530264137e-01
2.302551269531250000e-02 -8.526611328125000000e-02 -3.010253906250000000e-01 -2.596524925029506936e-01 -3.115232012564623787e-01 9.140754226079655931e-01
2.444458007812500000e-02 -8.526611328125000000e-02 -3.010253906250000000e-01 -2.386511476979800706e-01 -3.535002914316623945e-01 9.044795042786579753e-01
2.577209472656250000e-02 -8.496093750000000000e-02 -3.000488281250000000e-01 -2.340397982529641707e-01 -4.170679225883919261e-01 8.782253246072531105e-01
2.717590332031250000e-02 -8.496093750000000000e-02 -3.000488281250000000e-01 -1.980214853203204617e-01 -4.253593881893406037e-01 8.830950584340986342e-01
2.859497070312500000e-02 -8.496093750000000000e-02 -3.000488281250000000e-01 -1.826307443761840399e-01 -4.235254176949441174e-01 8.872836253278452157e-01
2.989196777343750000e-02 -8.471679687500000000e-02 -2.990722656250000000e-01 -1.756641544059814042e-01 -4.445734672018768485e-01 8.783487559716431914e-01
3.128051757812500000e-02 -8.471679687500000000e-02 -2.990722656250000000e-01 -1.807975792779898672e-01 -4.514066890487273276e-01 8.738101832831227656e-01
3.271484375000000000e-02 -8.471679687500000000e-02 -2.990722656250000000e-01 -1.452348084315465693e-01 -4.707244573417691536e-01 8.702444114616012527e-01
3.399658203125000000e-02 -8.441162109375000000e-02 -2.980957031250000000e-01 -1.033404137684873214e-01 -4.755245289996095637e-01 8.736115734134120014e-01
3.540039062500000000e-02 -8.441162109375000000e-02 -2.980957031250000000e-01 -7.629420926739907682e-02 -4.884873823347253841e-01 8.692291245304831770e-01
3.680419921875000000e-02 -8.441162109375000000e-02 -2.980957031250000000e-01 -2.972377691209240197e-02 -4.983106017930359899e-01 8.664889158129736035e-01
3.817749023437500000e-02 -8.441162109375000000e-02 -2.980957031250000000e-01 1.201558318555297759e-04 -5.004953582336095774e-01 8.657392112808490747e-01
3.958129882812500000e-02 -8.441162109375000000e-02 -2.980957031250000000e-01 -5.248561561007899590e-05 -5.003423491523957267e-01 8.658276565748649345e-01
4.098510742187500000e-02 -8.441162109375000000e-02 -2.980957031250000000e-01 4.529683832336464655e-02 -5.034959722472321930e-01 8.628093661804566716e-01
4.238891601562500000e-02 -8.441162109375000000e-02 -2.980957031250000000e-01 8.538942285165404544e-02 -5.077353269711359918e-01 8.572709514561748234e-01
4.379272460937500000e-02 -8.441162109375000000e-02 -2.980957031250000000e-01 1.113154588012389284e-01 -5.131753820764295426e-01 8.510346032110447378e-01
4.534912109375000000e-02 -8.471679687500000000e-02 -2.990722656250000000e-01 1.572654295246730116e-01 -4.911890102533522651e-01 8.567385487316141468e-01
4.675292968750000000e-02 -8.471679687500000000e-02 -2.990722656250000000e-01 1.639455843703128135e-01 -4.774215354664908539e-01 8.632441849432263004e-01
4.815673828125000000e-02 -8.471679687500000000e-02 -2.990722656250000000e-01 1.815709391827173835e-01 -4.722077494286848753e-01 8.625843932183112628e-01
4.971313476562500000e-02 -8.496093750000000000e-02 -3.000488281250000000e-01 2.293474929686201147e-01 -4.575944833987538596e-01 8.590733474110556767e-01
5.114746093750000000e-02 -8.496093750000000000e-02 -3.000488281250000000e-01 2.984040248846492327e-01 -4.200313051126193797e-01 8.570465218749978575e-01
5.273437500000000000e-02 -8.526611328125000000e-02 -3.010253906250000000e-01 3.418435613029660591e-01 -3.589977192403583373e-01 8.684835157767394342e-01
5.432128906250000000e-02 -8.557128906250000000e-02 -3.020019531250000000e-01 3.859427096975825422e-01 -2.851742105290929197e-01 8.773390989123853734e-01
5.590820312500000000e-02 -8.581542968750000000e-02 -3.029785156250000000e-01 4.606562804405565648e-01 -2.055421482089323515e-01 8.634513400304202335e-01
5.752563476562500000e-02 -8.612060546875000000e-02 -3.039550781250000000e-01 4.772213666155143419e-01 -1.313751041311393974e-01 8.689075608257492700e-01
5.914306640625000000e-02 -8.642578125000000000e-02 -3.051757812500000000e-01 4.517278895677531159e-01 7.781022467700804413e-02 8.887561435637885143e-01
6.079101562500000000e-02 -8.666992187500000000e-02 -3.061523437500000000e-01 3.801941717190680525e-01 1.540179844725196590e-01 9.119927917751732283e-01
6.222534179687500000e-02 -8.666992187500000000e-02 -3.061523437500000000e-01 3.110899665142794479e-01 2.428946539604900645e-01 9.188172940316036152e-01
6.384277343750000000e-02 -8.697509765625000000e-02 -3.071289062500000000e-01 2.518396676421311708e-01 3.428970370152389924e-01 9.049853058520179738e-01
6.530761718750000000e-02 -8.697509765625000000e-02 -3.071289062500000000e-01 2.327797760927479975e-01 3.814625974729333735e-01 8.945948035683042310e-01
6.677246093750000000e-02 -8.697509765625000000e-02 -3.071289062500000000e-01 1.332312300310518061e-01 4.505264167530018127e-01 8.827657600700843377e-01
6.817626953125000000e-02 -8.697509765625000000e-02 -3.071289062500000000e-01 3.215169206121282208e-02 4.837384351478187239e-01 8.746218583241218703e-01
6.964111328125000000e-02 -8.697509765625000000e-02 -3.071289062500000000e-01 -1.396877566492704843e-02 5.135062567290280544e-01 8.579721426751364399e-01
7.104492187500000000e-02 -8.697509765625000000e-02 -3.071289062500000000e-01 -5.450394729388609999e-02 5.257372377786395656e-01 8.488990967967109391e-01
7.250976562500000000e-02 -8.697509765625000000e-02 -3.071289062500000000e-01 -5.292529442682048640e-02 5.640352655483780175e-01 8.240528699225583287e-01
7.397460937500000000e-02 -8.697509765625000000e-02 -3.071289062500000000e-01 -5.438206619923357382e-02 5.981390174135510218e-01 7.995450623469911866e-01
7.537841796875000000e-02 -8.697509765625000000e-02 -3.071289062500000000e-01 -3.328215375159516293e-02 6.235957863104947263e-01 7.810381511408075461e-01
7.684326171875000000e-02 -8.697509765625000000e-02 -3.071289062500000000e-01 1.795694139210785121e-04 6.431773059139593851e-01 7.657172591185905652e-01
7.830810546875000000e-02 -8.697509765625000000e-02 -3.071289062500000000e-01 -8.756864217035070796e-05 6.431856861904255984e-01 7.657102359322907059e-01
7.971191406250000000e-02 -8.697509765625000000e-02 -3.071289062500000000e-01 1.757818788362884815e-04 6.431765651062898437e-01 7.657178822509015381e-01
8.117675781250000000e-02 -8.697509765625000000e-02 -3.071289062500000000e-01 1.764113660635154262e-04 6.431759241745698130e-01 7.657184204661775517e-01
8.264160156250000000e-02 -8.697509765625000000e-02 -3.071289062500000000e-01 1.747206621370438781e-04 6.431757033938275692e-01 7.657186063016526711e-01
8.404541015625000000e-02 -8.697509765625000000e-02 -3.071289062500000000e-01 1.732651895127635029e-04 6.431751997819350475e-01 7.657190296477174307e-01
8.551025390625000000e-02 -8.697509765625000000e-02 -3.071289062500000000e-01 2.688048152300169871e-02 6.339562684774289192e-01 7.729016039388620918e-01
8.691406250000000000e-02 -8.697509765625000000e-02 -3.071289062500000000e-01 8.296109259343392717e-02 5.961584045407082311e-01 7.985691039673279423e-01
8.837890625000000000e-02 -8.697509765625000000e-02 -3.071289062500000000e-01 1.352460289118492531e-01 5.789172959879189673e-01 8.040915843792990625e-01
9.014892578125000000e-02 -8.728027343750000000e-02 -3.081054687500000000e-01 1.563667008560282734e-01 5.815215523125646380e-01 7.983621603378923126e-01
9.155273437500000000e-02 -8.728027343750000000e-02 -3.081054687500000000e-01 1.239313813537640391e-01 6.128358362038376361e-01 7.804314515574645172e-01
9.301757812500000000e-02 -8.728027343750000000e-02 -3.081054687500000000e-01 6.026137766989347888e-02 6.184678478073240004e-01 7.834960673736041104e-01
9.448242187500000000e-02 -8.728027343750000000e-02 -3.081054687500000000e-01 2.528231828691628394e-02 6.398357775873229070e-01 7.680956855114243753e-01
9.588623046875000000e-02 -8.728027343750000000e-02 -3.081054687500000000e-01 5.616581901633456095e-04 6.456453913745605622e-01 7.636371606573818527e-01
9.735107421875000000e-02 -8.728027343750000000e-02 -3.081054687500000000e-01 5.704741958034309371e-04 6.456443488444745249e-01 7.636380355668426212e-01
9.881591796875000000e-02 -8.728027343750000000e-02 -3.081054687500000000e-01 2.051467397141435529e-04 6.446179798476050493e-01 7.645048188023458868e-01
1.002807617187500000e-01 -8.728027343750000000e-02 -3.081054687500000000e-01 2.083249153735037412e-04 6.446177521717101344e-01 7.645050099154493406e-01
1.016845703125000000e-01 -8.728027343750000000e-02 -3.081054687500000000e-01 2.027793641488053931e-04 6.446173402052053358e-01 7.645053587695093134e-01
1.031494140625000000e-01 -8.728027343750000000e-02 -3.081054687500000000e-01 1.953273068374871899e-04 6.446163533780172594e-01 7.645061927838584515e-01
1.046142578125000000e-01 -8.728027343750000000e-02 -3.081054687500000000e-01 1.954042357493307436e-04 6.446161688894369579e-01 7.645063483212481970e-01
1.060180664062500000e-01 -8.728027343750000000e-02 -3.081054687500000000e-01 1.924604146990495520e-04 6.446154610614712732e-01 7.645069458935580542e-01
1.074829101562500000e-01 -8.728027343750000000e-02 -3.081054687500000000e-01 1.971908554546885327e-04 6.446152699144873655e-01 7.645071058589574253e-01
1.089477539062500000e-01 -8.728027343750000000e-02 -3.081054687500000000e-01 2.067051404711611588e-04 6.446151011106542317e-01 7.645072456772962211e-01
1.104125976562500000e-01 -8.728027343750000000e-02 -3.081054687500000000e-01 -4.666998466795887427e-04 6.444043328644617485e-01 7.646847964859514457e-01
1.118164062500000000e-01 -8.728027343750000000e-02 -3.081054687500000000e-01 2.243555596631252537e-04 6.446146042411906585e-01 7.645076596500233190e-01
1.132812500000000000e-01 -8.728027343750000000e-02 -3.081054687500000000e-01 -1.079899166501753494e-02 6.597655959228235778e-01 7.513938649041661533e-01
1.147460937500000000e-01 -8.728027343750000000e-02 -3.081054687500000000e-01 -1.476964620602015665e-02 6.757168003673116319e-01 7.370133399418981046e-01
1.161499023437500000e-01 -8.728027343750000000e-02 -3.081054687500000000e-01 -2.770638410227937651e-02 7.001740500310570381e-01 7.134344089985316106e-01
1.176147460937500000e-01 -8.728027343750000000e-02 -3.081054687500000000e-01 3.039039191729282774e-02 -7.216997054973068870e-01 -6.915388341692848551e-01
1.190795898437500000e-01 -8.728027343750000000e-02 -3.081054687500000000e-01 5.229132966294113005e-02 -7.357162358131247304e-01 -6.752682705436766630e-01
1.205444335937500000e-01 -8.728027343750000000e-02 -3.081054687500000000e-01 8.192626033679099862e-02 -7.419552712557148100e-01 -6.654250245693252852e-01
1.219482421875000000e-01 -8.728027343750000000e-02 -3.081054687500000000e-01 9.321436392870781351e-02 -7.422632253883109099e-01 -6.635935401987484994e-01
1.229858398437500000e-01 -8.697509765625000000e-02 -3.071289062500000000e-01 8.643987034494907129e-02 -7.458407836834629601e-01 -6.604919940538160894e-01
1.244506835937500000e-01 -8.697509765625000000e-02 -3.071289062500000000e-01 7.897161283135932519e-02 -7.289911184545204703e-01 -6.799525230346904481e-01
1.258544921875000000e-01 -8.697509765625000000e-02 -3.071289062500000000e-01 7.190273185325338212e-02 -7.053706687787443252e-01 -7.051823996517965210e-01
1.273193359375000000e-01 -8.697509765625000000e-02 -3.071289062500000000e-01 -3.746418716266513432e-02 6.869022106668771777e-01 7.257835680567574776e-01
1.287841796875000000e-01 -8.697509765625000000e-02 -3.071289062500000000e-01 1.600495307960455975e-04 6.496637003844398794e-01 7.602217115992837559e-01
1.302490234375000000e-01 -8.697509765625000000e-02 -3.071289062500000000e-01 -1.315547550874106015e-04 6.431634148884372015e-01 7.657289366625702476e-01
1.315917968750000000e-01 -8.697509765625000000e-02 -3.071289062500000000e-01 -1.337711142857919613e-04 6.431633143703822109e-01 7.657290207073215171e-01
1.330566406250000000e-01 -8.697509765625000000e-02 -3.071289062500000000e-01 -1.363810233596759634e-04 6.431633356701222937e-01 7.657290023565112014e-01
1.345214843750000000e-01 -8.697509765625000000e-02 -3.071289062500000000e-01 2.460951694556877747e-02 6.440979448433028498e-01 7.645470614189419090e-01
1.359863281250000000e-01 -8.697509765625000000e-02 -3.071289062500000000e-01 6.761438427705018794e-02 6.144745432687471753e-01 7.860339246581536932e-01
1.374511718750000000e-01 -8.697509765625000000e-02 -3.071289062500000000e-01 1.174933259332570645e-01 5.810964784758556601e-01 8.053087613233204101e-01
1.387939453125000000e-01 -8.697509765625000000e-02 -3.071289062500000000e-01 1.463748204437221312e-01 5.734296489719767909e-01 8.060724840980143524e-01
1.407470703125000000e-01 -8.728027343750000000e-02 -3.081054687500000000e-01 1.249367946522697559e-01 5.787554356579832637e-01 8.058740242980627633e-01
1.422119140625000000e-01 -8.728027343750000000e-02 -3.081054687500000000e-01 8.051792632388729554e-02 6.183472197326569386e-01 7.817695180738338800e-01
1.436767578125000000e-01 -8.728027343750000000e-02 -3.081054687500000000e-01 2.880968968932929447e-02 6.405477656629917638e-01 7.673777177401970295e-01
1.451416015625000000e-01 -8.728027343750000000e-02 -3.081054687500000000e-01 -1.086772664274065396e-03 6.445204825056358722e-01 7.645862714932034621e-01
1.464843750000000000e-01 -8.728027343750000000e-02 -3.081054687500000000e-01 2.043121029481219722e-03 -6.443048696622867277e-01 -7.647660168874680364e-01
1.479492187500000000e-01 -8.728027343750000000e-02 -3.081054687500000000e-01 2.844505664413098101e-03 -6.434558223293966872e-01 -7.654779640838301757e-01
-1.557617187500000000e-01 -8.782958984375000000e-02 -3.051757812500000000e-01 -9.980096985585255875e-02 6.105792256668632900e-01 7.856416330617189692e-01
-1.542968750000000000e-01 -8.782958984375000000e-02 -3.051757812500000000e-01 -9.980096985585255875e-02 6.105792256668632900e-01 7.856416330617189692e-01
-1.528320312500000000e-01 -8.782958984375000000e-02 -3.051757812500000000e-01 -7.766290316283344652e-02 6.400008938312816698e-01 7.644392254244157803e-01
-1.514892578125000000e-01 -8.782958984375000000e-02 -3.051757812500000000e-01 -2.903147292602738239e-02 6.663228947204296038e-01 7.450979623855730205e-01
-1.500244140625000000e-01 -8.782958984375000000e-02 -3.051757812500000000e-01 3.632975271166878108e-04 6.731826892403877105e-01 7.394761219417340659e-01
-1.485595703125000000e-01 -8.782958984375000000e-02 -3.051757812500000000e-01 3.640197466387083648e-04 6.731812985192144883e-01 7.394773876283223801e-01
-1.470947265625000000e-01 -8.782958984375000000e-02 -3.051757812500000000e-01 4.276081921604180059e-04 6.731748195960987058e-01 7.394832516108760245e-01
-1.457519531250000000e-01 -8.782958984375000000e-02 -3.051757812500000000e-01 3.775950244209769517e-04 6.731794547933260819e-01 7.394790592478990288e-01
-1.442871093750000000e-01 -8.782958984375000000e-02 -3.051757812500000000e-01 3.867299026317604083e-02 6.563000175432858185e-01 7.535082526401333247e-01
-1.428222656250000000e-01 -8.782958984375000000e-02 -3.051757812500000000e-01 4.849209006251867932e-02 6.190253463827546376e-01 7.838725264589130326e-01
-1.414794921875000000e-01 -8.782958984375000000e-02 -3.051757812500000000e-01 8.960039585709753118e-02 5.892048755454908360e-01 8.030002389138336527e-01
-1.400146484375000000e-01 -8.782958984375000000e-02 -3.051757812500000000e-01 1.039068019173621238e-01 5.677956150914424960e-01 8.165852778480864327e-01
-1.385498046875000000e-01 -8.782958984375000000e-02 -3.051757812500000000e-01 8.763570088587421814e-02 5.461786115942834918e-01 8.330719705806831632e-01
-1.375732421875000000e-01 -8.813476562500000000e-02 -3.061523437500000000e-01 6.844931480642493793e-02 5.331931535858831506e-01 8.432198718434424922e-01
-1.361083984375000000e-01 -8.813476562500000000e-02 -3.061523437500000000e-01 2.533371518012970600e-02 5.155177408744004985e-01 8.565043267368394053e-01
-1.346435546875000000e-01 -8.813476562500000000e-02 -3.061523437500000000e-01 -1.055344522690941818e-02 5.146290637257576739e-01 8.573479757733103446e-01
-1.333007812500000000e-01 -8.813476562500000000e-02 -3.061523437500000000e-01 -4.464247848890433995e-02 5.128614824845224573e-01 8.573098324982314500e-01
-1.313476562500000000e-01 -8.782958984375000000e-02 -3.051757812500000000e-01 -3.767119791757894687e-02 5.319160708226278178e-01 8.459587309367234687e-01
-1.300048828125000000e-01 -8.782958984375000000e-02 -3.051757812500000000e-01 -4.644016299049635865e-02 5.322591690324375291e-01 8.453067421015375560e-01
-1.285400390625000000e-01 -8.782958984375000000e-02 -3.051757812500000000e-01 -1.154739020931475242e-02 5.190757106618343331e-01 8.546502585152978559e-01
-1.270751953125000000e-01 -8.782958984375000000e-02 -3.051757812500000000e-01 9.968676257242873803e-03 5.217993126306418317e-01 8.530100250476941870e-01
-1.256103515625000000e-01 -8.782958984375000000e-02 -3.051757812500000000e-01 1.031249694553209098e-02 5.217867887823400830e-01 8.530135986365996459e-01
-1.242675781250000000e-01 -8.782958984375000000e-02 -3.051757812500000000e-01 -1.363512898834931368e-02 5.212433095834221319e-01 8.532991828614344687e-01
-1.228027343750000000e-01 -8.782958984375000000e-02 -3.051757812500000000e-01 -1.366230506186913961e-02 5.212589750625604701e-01 8.532891786124592315e-01
-1.213989257812500000e-01 -8.782958984375000000e-02 -3.051757812500000000e-01 -1.366788915175246380e-02 5.212738895735968825e-01 8.532799779995712264e-01
-1.199340820312500000e-01 -8.782958984375000000e-02 -3.051757812500000000e-01 1.030216049166434063e-02 5.217173831410548690e-01 8.530561749484343315e-01
-1.185302734375000000e-01 -8.782958984375000000e-02 -3.051757812500000000e-01 -1.355291857196489272e-02 5.213267988541006037e-01 8.532494870755668037e-01
-1.170654296875000000e-01 -8.782958984375000000e-02 -3.051757812500000000e-01 -2.455508610469552336e-02 5.419667236814854627e-01 8.400411407593959545e-01
-1.156616210937500000e-01 -8.782958984375000000e-02 -3.051757812500000000e-01 -4.710313870715842482e-02 5.381449608102564230e-01 8.415350827377678922e-01
-1.141967773437500000e-01 -8.782958984375000000e-02 -3.051757812500000000e-01 -3.559503726627760017e-02 5.581985635846598015e-01 8.289435185427501684e-01
-1.127929687500000000e-01 -8.782958984375000000e-02 -3.051757812500000000e-01 -3.927900317259619412e-02 5.547037197459830926e-01 8.311202940668317440e-01
-1.113281250000000000e-01 -8.782958984375000000e-02 -3.051757812500000000e-01 6.054144937816020172e-02 5.594231672353794371e-01 8.266682846629163084e-01
-1.099243164062500000e-01 -8.782958984375000000e-02 -3.051757812500000000e-01 1.122189525990637954e-01 5.664443488164141449e-01 8.164237296719869530e-01
-1.084594726562500000e-01 -8.782958984375000000e-02 -3.051757812500000000e-01 1.502593646931658089e-01 5.883185414241678401e-01 7.945460446937898658e-01
-1.074218750000000000e-01 -8.813476562500000000e-02 -3.061523437500000000e-01 1.591432679541526229e-01 5.879864602939169904e-01 7.930607434338827755e-01
-1.059570312500000000e-01 -8.813476562500000000e-02 -3.061523437500000000e-01 1.269622198231852295e-01 5.972841753165794021e-01 7.919167940219241641e-01
-1.045532226562500000e-01 -8.813476562500000000e-02 -3.061523437500000000e-01 7.345063468279514063e-02 6.189497379757690210e-01 7.819886355468481653e-01
-1.030883789062500000e-01 -8.813476562500000000e-02 -3.061523437500000000e-01 1.738385343677966571e-02 6.367202097745386924e-01 7.708989402667225654e-01
-1.016845703125000000e-01 -8.813476562500000000e-02 -3.061523437500000000e-01 -2.519214722563505211e-03 6.224330823112600442e-01 7.826689668063284699e-01
-1.002197265625000000e-01 -8.813476562500000000e-02 -3.061523437500000000e-01 -2.270261440933940382e-03 6.224407430736653701e-01 7.826636361010348431e-01
-9.875488281250000000e-02 -8.813476562500000000e-02 -3.061523437500000000e-01 -2.458288014073574217e-03 6.224454270436231562e-01 7.826593429919056488e-01
-9.735107421875000000e-02 -8.813476562500000000e-02 -3.061523437500000000e-01 -2.367414742487240504e-03 6.224472507927849563e-01 7.826581727216171958e-01
-9.588623046875000000e-02 -8.813476562500000000e-02 -3.061523437500000000e-01 -2.178939773182226106e-03 6.224524342783137598e-01 7.826545976881924549e-01
-9.448242187500000000e-02 -8.813476562500000000e-02 -3.061523437500000000e-01 -2.303725867401967484e-03 6.224596576534332515e-01 7.826484954569954411e-01
-9.301757812500000000e-02 -8.813476562500000000e-02 -3.061523437500000000e-01 -2.385241368706756283e-03 6.224678790890474378e-01 7.826417124879021525e-01
-9.161376953125000000e-02 -8.813476562500000000e-02 -3.061523437500000000e-01 -1.730371009448982908e-02 6.097905367721619951e-01 7.923737015323542021e-01
-9.014892578125000000e-02 -8.813476562500000000e-02 -3.061523437500000000e-01 -2.344751141116019691e-02 5.964010052474724155e-01 8.023441002141338263e-01
-8.868408203125000000e-02 -8.813476562500000000e-02 -3.061523437500000000e-01 -4.583680051701036207e-02 5.766577892775275327e-01 8.156989529133396033e-01
-8.728027343750000000e-02 -8.813476562500000000e-02 -3.061523437500000000e-01 -6.652002599255228688e-02 5.578029405386208950e-01 8.273034302288477804e-01
-8.581542968750000000e-02 -8.813476562500000000e-02 -3.061523437500000000e-01 -9.756563450080367461e-02 5.487396003612110551e-01 8.302805537647344192e-01
-8.441162109375000000e-02 -8.813476562500000000e-02 -3.061523437500000000e-01 -1.179453348269283025e-01 5.540791154220019443e-01 8.240662787942093503e-01
-8.270263671875000000e-02 -8.782958984375000000e-02 -3.051757812500000000e-01 -1.051009247703991317e-01 5.593921535900406861e-01 8.222129980207704136e-01
-8.123779296875000000e-02 -8.782958984375000000e-02 -3.051757812500000000e-01 -1.576187651006490803e-02 5.521333645216072172e-01 8.336068084120543675e-01
-7.983398437500000000e-02 -8.782958984375000000e-02 -3.051757812500000000e-01 6.042823849540060813e-03 5.506199342743214320e-01 8.347341925784910188e-01
-7.836914062500000000e-02 -8.782958984375000000e-02 -3.051757812500000000e-01 4.721159899784737463e-02 5.429858418164625888e-01 8.384136452294499442e-01
-7.696533203125000000e-02 -8.782958984375000000e-02 -3.051757812500000000e-01 3.785937927108969786e-02 5.355346986063896919e-01 8.436641831853305407e-01
-7.550048828125000000e-02 -8.782958984375000000e-02 -3.051757812500000000e-01 1.816312250153162555e-02 5.288075123326069216e-01 8.485474152229762757e-01
-7.409667968750000000e-02 -8.782958984375000000e-02 -3.051757812500000000e-01 -3.425426498906826434e-02 5.320463749649377849e-01 8.460220447581301428e-01
-7.263183593750000000e-02 -8.782958984375000000e-02 -3.051757812500000000e-01 -6.094282127633287444e-02 5.338579577139412891e-01 8.433751558591116027e-01
-7.122802734375000000e-02 -8.782958984375000000e-02 -3.051757812500000000e-01 -9.879865509825545844e-02 5.161460284411670818e-01 8.507832291924811718e-01
-6.976318359375000000e-02 -8.782958984375000000e-02 -3.051757812500000000e-01 -1.732267027164629547e-01 4.777188003485438594e-01 8.612649170026203116e-01
-6.835937500000000000e-02 -8.782958984375000000e-02 -3.051757812500000000e-01 -2.384989774748647873e-01 4.136208314469646541e-01 8.786558174487696382e-01
-6.689453125000000000e-02 -8.782958984375000000e-02 -3.051757812500000000e-01 -2.106769357901339401e-01 3.484493294760085402e-01 9.133445645066268215e-01
-6.524658203125000000e-02 -8.752441406250000000e-02 -3.039550781250000000e-01 -2.504713944947077331e-01 2.846920567221897791e-01 9.253186010121950966e-01
-6.384277343750000000e-02 -8.752441406250000000e-02 -3.039550781250000000e-01 -3.376595034197811818e-01 1.960180526041993831e-01 9.206318389038933292e-01
-6.222534179687500000e-02 -8.728027343750000000e-02 -3.029785156250000000e-01 -3.005619537369734751e-01 5.467806853881365323e-03 9.537466199436945846e-01
-6.079101562500000000e-02 -8.728027343750000000e-02 -3.029785156250000000e-01 -2.810333745812859663e-01 -6.075356632558433223e-02 9.577730663106879261e-01
-5.917358398437500000e-02 -8.697509765625000000e-02 -3.020019531250000000e-01 -1.941840230361961128e-01 -1.502604814085452822e-01 9.693886490589573857e-01
-5.776977539062500000e-02 -8.697509765625000000e-02 -3.020019531250000000e-01 -1.697204728949799901e-01 -1.981534123130931080e-01 9.653653123398321378e-01
-5.615234375000000000e-02 -8.666992187500000000e-02 -3.010253906250000000e-01 -1.509803157668113682e-01 -2.260380137183060079e-01 9.623470063367147720e-01
-5.474853515625000000e-02 -8.666992187500000000e-02 -3.010253906250000000e-01 -1.552415678954861822e-01 -2.482562444260296985e-01 9.561740912097725920e-01
-5.331420898437500000e-02 -8.666992187500000000e-02 -3.010253906250000000e-01 -1.045129156501776180e-01 -2.415933031805817810e-01 9.647329818766403609e-01
-5.191040039062500000e-02 -8.666992187500000000e-02 -3.010253906250000000e-01 -1.011300978160853820e-01 -2.540535424683825205e-01 9.618885075074837809e-01
-5.050659179687500000e-02 -8.666992187500000000e-02 -3.010253906250000000e-01 -7.758219804289293031e-02 -2.465697788234986754e-01 9.660146721027399463e-01
-4.907226562500000000e-02 -8.666992187500000000e-02 -3.010253906250000000e-01 -4.983206580168125094e-02 -2.430349337521177377e-01 9.687366960087970824e-01
-4.751586914062500000e-02 -8.636474609375000000e-02 -3.000488281250000000e-01 -6.693270986508799425e-02 -3.046259014585737113e-01 9.501173993305603860e-01
-4.611206054687500000e-02 -8.636474609375000000e-02 -3.000488281250000000e-01 -7.450438792210711814e-02 -3.351115738809508637e-01 9.392280496404397105e-01
-4.467773437500000000e-02 -8.636474609375000000e-02 -3.000488281250000000e-01 -6.268486361468808554e-02 -3.626729550775411592e-01 9.298058590528088807e-01
-4.327392578125000000e-02 -8.636474609375000000e-02 -3.000488281250000000e-01 4.916422706947119921e-03 -3.807493556894396280e-01 9.246652134312414173e-01
-4.187011718750000000e-02 -8.636474609375000000e-02 -3.000488281250000000e-01 5.477467188267225173e-02 -4.130909501614646318e-01 9.090410343955018790e-01
-4.046630859375000000e-02 -8.636474609375000000e-02 -3.000488281250000000e-01 1.037162589005988650e-01 -3.822194437313698456e-01 9.182326690296670479e-01
-3.918457031250000000e-02 -8.666992187500000000e-02 -3.010253906250000000e-01 1.044777126681472601e-01 -3.092176453977455997e-01 9.452348149165403779e-01
-3.778076171875000000e-02 -8.666992187500000000e-02 -3.010253906250000000e-01 1.304836222240765009e-01 -3.285858010495681381e-01 9.354172308012601578e-01
-3.634643554687500000e-02 -8.666992187500000000e-02 -3.010253906250000000e-01 1.334838262036320000e-01 -3.500848617498135140e-01 9.271583779029625161e-01
-3.494262695312500000e-02 -8.666992187500000000e-02 -3.010253906250000000e-01 1.055629893163218674e-01 -3.683922988159979983e-01 9.236577122828923958e-01
-3.353881835937500000e-02 -8.666992187500000000e-02 -3.010253906250000000e-01 1.351747267216595050e-01 -3.551281439001112150e-01 9.249928619539649066e-01
-3.222656250000000000e-02 -8.697509765625000000e-02 -3.020019531250000000e-01 1.809654273164302551e-01 -2.857404678295037970e-01 9.410653001576236854e-01
-3.080749511718750000e-02 -8.697509765625000000e-02 -3.020019531250000000e-01 1.857216287331756588e-01 -2.501879632266958420e-01 9.502175854388162923e-01
-2.938842773437500000e-02 -8.697509765625000000e-02 -3.020019531250000000e-01 2.184055632985338058e-01 -2.205293678439487759e-01 9.506133850512512584e-01
-2.806091308593750000e-02 -8.728027343750000000e-02 -3.029785156250000000e-01 2.343722244843481073e-01 -1.392780497645375870e-01 9.621181243714544973e-01
-2.664184570312500000e-02 -8.728027343750000000e-02 -3.029785156250000000e-01 2.284577555537025406e-01 -1.056074283106309269e-01 9.678089300130370276e-01
-2.520751953125000000e-02 -8.728027343750000000e-02 -3.029785156250000000e-01 1.877732012621655400e-01 -1.803303203263389651e-02 9.820468596983894516e-01
-2.386474609375000000e-02 -8.752441406250000000e-02 -3.039550781250000000e-01 1.988987323997196410e-01 8.485639773376067729e-02 9.763394317620458507e-01
-2.244567871093750000e-02 -8.752441406250000000e-02 -3.039550781250000000e-01 2.698504083421780497e-01 1.444932319614576355e-01 9.519991927700843792e-01
-2.101135253906250000e-02 -8.752441406250000000e-02 -3.039550781250000000e-01 2.668856644931443256e-01 1.755908501953821477e-01 9.475969055541051400e-01
-1.965332031250000000e-02 -8.782958984375000000e-02 -3.051757812500000000e-01 2.774632041876337052e-01 2.503153273887045449e-01 9.275539915262167590e-01
-1.821899414062500000e-02 -8.782958984375000000e-02 -3.051757812500000000e-01 2.645089230115187373e-01 3.017242763888078327e-01 9.159680620441613685e-01
-1.678466796875000000e-02 -8.782958984375000000e-02 -3.051757812500000000e-01 2.068845999219535436e-01 3.627386253007104933e-01 9.086360393634428378e-01
-1.540374755859375000e-02 -8.813476562500000000e-02 -3.061523437500000000e-01 1.722224106584252512e-01 4.098272576693957059e-01 8.957572551412483763e-01
-1.396179199218750000e-02 -8.813476562500000000e-02 -3.061523437500000000e-01 1.193927473319799787e-01 4.571344441061484520e-01 8.813475318489776278e-01
-1.252746582031250000e-02 -8.813476562500000000e-02 -3.061523437500000000e-01 8.139317726945211051e-02 4.682054988517646565e-01 8.798629220162387243e-01
-1.109313964843750000e-02 -8.813476562500000000e-02 -3.061523437500000000e-01 1.962887422923870195e-02 4.865173203281656367e-01 8.734504017499755690e-01
-9.651184082031250000e-03 -8.813476562500000000e-02 -3.061523437500000000e-01 9.077031299271273723e-03 5.136335964001206289e-01 8.579616169455777097e-01
-8.216857910156250000e-03 -8.813476562500000000e-02 -3.061523437500000000e-01 3.464460440265824254e-02 5.070558082902052455e-01 8.612166734712871641e-01
-6.778717041015625000e-03 -8.813476562500000000e-02 -3.061523437500000000e-01 1.043060991947999776e-02 5.261986538734766405e-01 8.502977002429494835e-01
-5.340576171875000000e-03 -8.813476562500000000e-02 -3.061523437500000000e-01 -1.836564814492517000e-03 5.265416627937878902e-01 8.501473427424419693e-01
-3.902435302734375000e-03 -8.813476562500000000e-02 -3.061523437500000000e-01 -1.409582916793174906e-02 5.267833571184307173e-01 8.498826991197693248e-01
-2.464294433593750000e-03 -8.813476562500000000e-02 -3.061523437500000000e-01 -3.461527756529465816e-02 5.105150455503288942e-01 8.591717935464496803e-01
-1.027107238769531250e-03 -8.813476562500000000e-02 -3.061523437500000000e-01 -1.003977925948265973e-02 5.134878535226750085e-01 8.580381268434967845e-01
4.100799560546875000e-04 -8.813476562500000000e-02 -3.061523437500000000e-01 4.601464434559145357e-05 4.927611040268173870e-01 8.701646351357451570e-01
1.847267150878906250e-03 -8.813476562500000000e-02 -3.061523437500000000e-01 -2.056885048456198045e-02 4.862593370061327747e-01 8.735724237658260005e-01
3.284454345703125000e-03 -8.813476562500000000e-02 -3.061523437500000000e-01 -3.077966873862317959e-02 4.796322485653391476e-01 8.769295970193373702e-01
4.722595214843750000e-03 -8.813476562500000000e-02 -3.061523437500000000e-01 -8.185013316992735544e-02 4.604738151067397367e-01 8.838916343653837604e-01
