-7.965087890625000000e-02 -5.432128906250000000e-02 -3.100585937500000000e-01 -1.203391365318063067e-01 5.371700681798456944e-01 8.348453809361582323e-01
-7.824707031250000000e-02 -5.432128906250000000e-02 -3.100585937500000000e-01 -8.784016435069452733e-02 5.597392661315440110e-01 8.240000360906324373e-01
-7.678222656250000000e-02 -5.432128906250000000e-02 -3.100585937500000000e-01 -4.282439853667680679e-02 6.022108501571095118e-01 7.971876584863963888e-01
-7.531738281250000000e-02 -5.432128906250000000e-02 -3.100585937500000000e-01 -4.103829323649667830e-05 6.064756579461592079e-01 7.951020529684423854e-01
-7.385253906250000000e-02 -5.432128906250000000e-02 -3.100585937500000000e-01 1.045379405154679177e-02 6.250109275476209980e-01 7.805460003330938479e-01
-7.238769531250000000e-02 -5.432128906250000000e-02 -3.100585937500000000e-01 5.075893880727513907e-02 6.541916694523290943e-01 7.546236079995999324e-01
-7.092285156250000000e-02 -5.432128906250000000e-02 -3.100585937500000000e-01 9.116487638178201458e-02 6.714061044772383635e-01 7.354609494629843480e-01
-6.945800781250000000e-02 -5.432128906250000000e-02 -3.100585937500000000e-01 1.745507181996955037e-01 6.751886288598939467e-01 7.166954459421847057e-01
-6.823730468750000000e-02 -5.450439453125000000e-02 -3.110351562500000000e-01 2.710996589077431795e-01 6.740682631866794505e-01 6.871222245747833357e-01
-6.677246093750000000e-02 -5.450439453125000000e-02 -3.110351562500000000e-01 3.714108121827273679e-01 6.366083331022617253e-01 6.758578540037294413e-01
-6.555175781250000000e-02 -5.468750000000000000e-02 -3.120117187500000000e-01 -5.363612280551781630e-01 -6.010706779397335664e-01 -5.924784157758072878e-01
-6.427001953125000000e-02 -5.487060546875000000e-02 -3.129882812500000000e-01 6.517111457921738182e-01 5.490498625890092299e-01 5.232751005362686891e-01
-6.323242187500000000e-02 -5.520629882812500000e-02 -3.151855468750000000e-01 7.293946315318005080e-01 4.753509924699362843e-01 4.919602681624153373e-01
-6.213378906250000000e-02 -5.557250976562500000e-02 -3.171386718750000000e-01 9.041012900078723158e-01 2.560225404898330281e-01 3.421305542731210014e-01
-6.140136718750000000e-02 -5.627441406250000000e-02 -3.210449218750000000e-01 9.342276374613549539e-01 6.475696516185089346e-02 3.507495643139162955e-01
-6.027221679687500000e-02 -5.661010742187500000e-02 -3.232421875000000000e-01 8.748899779580865399e-01 3.353706704502548708e-02 4.831591783279259311e-01
-5.911254882812500000e-02 -5.697631835937500000e-02 -3.251953125000000000e-01 8.279728821066281164e-01 7.347252213239921503e-02 5.559340743177625388e-01
-5.795288085937500000e-02 -5.731201171875000000e-02 -3.271484375000000000e-01 -6.692190699851734426e-01 -9.743325146851898599e-02 -7.366495760376511326e-01
-3.796386718750000000e-02 -5.731201171875000000e-02 -3.271484375000000000e-01 4.014613598809806949e-01 -1.025569318504969824e-01 -9.101158455119469082e-01
-3.631591796875000000e-02 -5.715942382812500000e-02 -3.261718750000000000e-01 -4.243853684777355029e-01 1.491844481758976444e-02 9.053587681279954280e-01
-3.466796875000000000e-02 -5.697631835937500000e-02 -3.251953125000000000e-01 4.849606449003841524e-01 -5.935419644715588666e-02 -8.725194853193344313e-01
-3.305053710937500000e-02 -5.679321289062500000e-02 -3.242187500000000000e-01 -6.933640092281653233e-01 -1.233705155224032284e-02 7.204818858694796990e-01
-3.161621093750000000e-02 -5.697631835937500000e-02 -3.251953125000000000e-01 7.226102568837456941e-01 -3.832295215123222940e-03 -6.912450579640996295e-01
-2.917480468750000000e-02 -5.520629882812500000e-02 -3.151855468750000000e-01 6.444219947697487072e-01 -4.679498217884299760e-01 -6.047671096754140274e-01
-2.760314941406250000e-02 -5.505371093750000000e-02 -3.142089843750000000e-01 -4.751843783170710545e-01 5.580708343439946262e-01 6.802622659372018488e-01
-2.604675292968750000e-02 -5.487060546875000000e-02 -3.129882812500000000e-01 -4.568956894035215988e-01 5.592775118146514624e-01 6.917044121464694939e-01
-2.450561523437500000e-02 -5.468750000000000000e-02 -3.120117187500000000e-01 -4.230911046977198775e-01 5.543322878472941584e-01 7.167353987181375174e-01
-2.296447753906250000e-02 -5.450439453125000000e-02 -3.110351562500000000e-01 -3.492334158641919317e-01 5.627354086407420075e-01 7.492428719085456601e-01
-2.149963378906250000e-02 -5.450439453125000000e-02 -3.110351562500000000e-01 -2.889598644094946156e-01 5.740690204012662834e-01 7.661246351449461089e-01
-1.997375488281250000e-02 -5.432128906250000000e-02 -3.100585937500000000e-01 -1.953011673693219596e-01 5.919662632134295999e-01 7.819420677015073151e-01
-1.850891113281250000e-02 -5.432128906250000000e-02 -3.100585937500000000e-01 -1.909491794187228308e-01 6.092163512702566397e-01 7.696712598403760985e-01
-1.705932617187500000e-02 -5.432128906250000000e-02 -3.100585937500000000e-01 -1.598716302193844419e-01 6.353512333062588668e-01 7.554931317935406065e-01
-1.555633544921875000e-02 -5.416870117187500000e-02 -3.090820312500000000e-01 -1.259637444810627338e-01 6.660383028989291798e-01 7.352048110205916531e-01
-1.410675048828125000e-02 -5.416870117187500000e-02 -3.090820312500000000e-01 -8.678922658722271199e-02 6.845590749283536613e-01 7.237724111083733147e-01
-1.264953613281250000e-02 -5.416870117187500000e-02 -3.090820312500000000e-01 -1.064393666721172131e-02 6.993430075348318065e-01 7.147069780157183638e-01
-1.119995117187500000e-02 -5.416870117187500000e-02 -3.090820312500000000e-01 7.211747644131998036e-02 6.945481460709208577e-01 7.158225634758815792e-01
-9.750366210937500000e-03 -5.416870117187500000e-02 -3.090820312500000000e-01 1.008163203889920756e-01 6.879572974205150349e-01 7.187147045031744286e-01
-8.323669433593750000e-03 -5.432128906250000000e-02 -3.100585937500000000e-01 1.065684921967842147e-01 6.837851059358497352e-01 7.218594637262871760e-01
-6.866455078125000000e-03 -5.432128906250000000e-02 -3.100585937500000000e-01 9.291829745129900897e-02 6.694090398663935515e-01 7.370601924835616936e-01
-5.409240722656250000e-03 -5.432128906250000000e-02 -3.100585937500000000e-01 5.409604624787665156e-02 6.530688070571875059e-01 7.553639857904594912e-01
-3.952026367187500000e-03 -5.432128906250000000e-02 -3.100585937500000000e-01 1.411325948491881296e-02 6.250660352654767715e-01 7.804442756944334203e-01
-2.496719360351562500e-03 -5.432128906250000000e-02 -3.100585937500000000e-01 -1.108679208865654375e-13 6.060432152650715443e-01 7.954317200308107516e-01
-1.040458679199218750e-03 -5.432128906250000000e-02 -3.100585937500000000e-01 -1.029349053480387199e-13 6.060432152650712112e-01 7.954317200308109737e-01
4.155635833740234375e-04 -5.432128906250000000e-02 -3.100585937500000000e-01 1.014489986487048874e-13 6.060432152650714333e-01 7.954317200308109737e-01
1.872062683105468750e-03 -5.432128906250000000e-02 -3.100585937500000000e-01 -5.673741325290065270e-15 6.060432152626262781e-01 7.954317200326737058e-01
3.328323364257812500e-03 -5.432128906250000000e-02 -3.100585937500000000e-01 1.018431828295055311e-02 6.255873471319588486e-01 7.800876558243371450e-01
4.783630371093750000e-03 -5.432128906250000000e-02 -3.100585937500000000e-01 2.916372770596179290e-02 6.532810683724333822e-01 7.565535821688142981e-01
6.240844726562500000e-03 -5.432128906250000000e-02 -3.100585937500000000e-01 3.423194712068741014e-02 6.769363384986217813e-01 7.352451070332978178e-01
7.698059082031250000e-03 -5.432128906250000000e-02 -3.100585937500000000e-01 2.619170121224965314e-02 6.974272733223598753e-01 7.161767890777714918e-01
9.155273437500000000e-03 -5.432128906250000000e-02 -3.100585937500000000e-01 2.178669404879484198e-02 7.043191582924080985e-01 7.095490562496000742e-01
1.061248779296875000e-02 -5.432128906250000000e-02 -3.100585937500000000e-01 -3.126096961437536959e-02 -7.127873874323271686e-01 -7.006831609908765746e-01
1.206970214843750000e-02 -5.432128906250000000e-02 -3.100585937500000000e-01 -4.722790133920634625e-02 -7.167211670506096199e-01 -6.957587901253612372e-01
1.352691650390625000e-02 -5.432128906250000000e-02 -3.100585937500000000e-01 -6.753331914549917658e-02 -7.131959437717361183e-01 -6.977039462356040556e-01
1.502990722656250000e-02 -5.450439453125000000e-02 -3.110351562500000000e-01 -1.435225940585431459e-01 -7.054918647328416448e-01 -6.940334961588557894e-01
1.647949218750000000e-02 -5.450439453125000000e-02 -3.110351562500000000e-01 -2.185325245067332445e-01 -6.923659582985470795e-01 -6.876575568711862374e-01
1.794433593750000000e-02 -5.450439453125000000e-02 -3.110351562500000000e-01 -2.960722899543286601e-01 -6.766592892993720243e-01 -6.741464272144951364e-01
1.947021484375000000e-02 -5.468750000000000000e-02 -3.120117187500000000e-01 3.527484673317964337e-01 6.580581155474655164e-01 6.652278071136134008e-01
2.101135253906250000e-02 -5.487060546875000000e-02 -3.129882812500000000e-01 4.753270217830870559e-01 6.145707347099585993e-01 6.295768693343826161e-01
2.255249023437500000e-02 -5.505371093750000000e-02 -3.142089843750000000e-01 5.046656613759716858e-01 5.922921374593386190e-01 6.280944149821752198e-01
2.409362792968750000e-02 -5.520629882812500000e-02 -3.151855468750000000e-01 -5.220570198582719090e-01 -5.685904050779604368e-01 -6.357369104196962661e-01
2.632141113281250000e-02 -5.679321289062500000e-02 -3.242187500000000000e-01 7.603797030216994379e-01 -6.845285211519142043e-02 6.458613738798195669e-01
2.801513671875000000e-02 -5.715942382812500000e-02 -3.261718750000000000e-01 -5.819336453723730207e-01 3.068229256030791802e-02 -8.126572643537156582e-01
2.963256835937500000e-02 -5.731201171875000000e-02 -3.271484375000000000e-01 -5.004558270279374499e-01 1.131632196809867832e-02 -8.656881113027353747e-01
5.535888671875000000e-02 -5.538940429687500000e-02 -3.161621093750000000e-01 7.718503310995311617e-01 -4.804640897294301660e-01 -4.164148470720204775e-01
5.648803710937500000e-02 -5.505371093750000000e-02 -3.142089843750000000e-01 5.131682524819313196e-01 -6.743863179585609657e-01 -5.309062429421376184e-01
5.776977539062500000e-02 -5.487060546875000000e-02 -3.129882812500000000e-01 4.893201035035391055e-01 -6.835949004849412036e-01 -5.415384089224597464e-01
5.905151367187500000e-02 -5.468750000000000000e-02 -3.120117187500000000e-01 3.112555837902680755e-01 -6.802734792652299634e-01 -6.635871871636447317e-01
6.051635742187500000e-02 -5.468750000000000000e-02 -3.120117187500000000e-01 -2.687212089323405273e-01 6.742351330993022751e-01 6.878923587048394461e-01
6.179809570312500000e-02 -5.450439453125000000e-02 -3.110351562500000000e-01 -1.804658103159958726e-01 6.449297906684973158e-01 7.426288820233694077e-01
6.323242187500000000e-02 -5.450439453125000000e-02 -3.110351562500000000e-01 -1.059271946353218252e-01 6.350963684544701504e-01 7.651353032063248349e-01
6.469726562500000000e-02 -5.450439453125000000e-02 -3.110351562500000000e-01 -5.563062123356381922e-02 6.119315371598259556e-01 7.889518539241670014e-01
6.616210937500000000e-02 -5.450439453125000000e-02 -3.110351562500000000e-01 -1.376654070740961560e-05 6.043464445062516344e-01 7.967216419949532114e-01
6.762695312500000000e-02 -5.450439453125000000e-02 -3.110351562500000000e-01 4.065057963143380720e-02 5.966684141698326282e-01 8.014576307626531948e-01
6.909179687500000000e-02 -5.450439453125000000e-02 -3.110351562500000000e-01 1.043587223539938352e-01 5.741762840393379586e-01 8.120534784824330332e-01
7.055664062500000000e-02 -5.450439453125000000e-02 -3.110351562500000000e-01 2.044683970904916104e-01 5.685657186520920447e-01 7.968222500438070233e-01
7.220458984375000000e-02 -5.468750000000000000e-02 -3.120117187500000000e-01 3.218081591082351256e-01 5.718611304720422339e-01 7.545954917613851842e-01
7.373046875000000000e-02 -5.468750000000000000e-02 -3.120117187500000000e-01 4.352418855989020341e-01 5.223916179489932476e-01 7.332608666204307735e-01
7.537841796875000000e-02 -5.487060546875000000e-02 -3.129882812500000000e-01 5.279993353973282399e-01 4.768125500389858717e-01 7.027563546104005354e-01
7.739257812500000000e-02 -5.520629882812500000e-02 -3.151855468750000000e-01 6.189238023217275009e-01 4.200479071203274684e-01 6.636965290277235807e-01
7.934570312500000000e-02 -5.557250976562500000e-02 -3.171386718750000000e-01 -6.452223952452535993e-01 -4.360823702099919097e-01 -6.273119057263404352e-01
-8.782958984375000000e-02 -5.633544921875000000e-02 -3.129882812500000000e-01 3.291010895783793577e-01 -2.662872556144890157e-01 -9.059710648445825631e-01
-8.575439453125000000e-02 -5.596923828125000000e-02 -3.110351562500000000e-01 -3.281753492228221547e-01 2.856669866759844467e-01 9.003862020743885752e-01
-8.435058593750000000e-02 -5.596923828125000000e-02 -3.110351562500000000e-01 -3.506870834048079200e-01 3.199614578836841305e-01 8.801381908552637912e-01
-8.258056640625000000e-02 -5.578613281250000000e-02 -3.100585937500000000e-01 -2.974195872129483664e-01 3.970146710128349410e-01 8.682862086562529447e-01
-8.111572265625000000e-02 -5.578613281250000000e-02 -3.100585937500000000e-01 -2.201453421279244982e-01 4.734631650325432095e-01 8.528591089369603750e-01
-7.940673828125000000e-02 -5.560302734375000000e-02 -3.090820312500000000e-01 -1.578672861518075066e-01 5.307084912559240086e-01 8.327222930076534357e-01
-7.794189453125000000e-02 -5.560302734375000000e-02 -3.090820312500000000e-01 -1.079301143025822030e-01 5.541555773038843169e-01 8.253863862274626317e-01
-7.653808593750000000e-02 -5.560302734375000000e-02 -3.090820312500000000e-01 -5.575831568094652413e-02 5.905139766266706003e-01 8.050989092285368853e-01
-7.507324218750000000e-02 -5.560302734375000000e-02 -3.090820312500000000e-01 -6.980340227795765837e-05 6.083414922846290818e-01 7.936753894964840850e-01
-7.360839843750000000e-02 -5.560302734375000000e-02 -3.090820312500000000e-01 -6.807260526049244999e-05 6.083418019599708959e-01 7.936751522847467211e-01
-7.214355468750000000e-02 -5.560302734375000000e-02 -3.090820312500000000e-01 1.965837137107181304e-02 6.187188970922694597e-01 7.853664589323651191e-01
-7.067871093750000000e-02 -5.560302734375000000e-02 -3.090820312500000000e-01 7.786069608069713655e-02 6.426011583544422034e-01 7.622345198738759153e-01
-6.927490234375000000e-02 -5.560302734375000000e-02 -3.090820312500000000e-01 1.829938895805035548e-01 6.484094265411916025e-01 7.389712118538321883e-01
-6.781005859375000000e-02 -5.560302734375000000e-02 -3.090820312500000000e-01 3.018119109121810140e-01 6.502398179368772402e-01 6.972071066770293424e-01
-6.658935546875000000e-02 -5.578613281250000000e-02 -3.100585937500000000e-01 4.036393705335221127e-01 6.255124582577871184e-01 6.676896158542546811e-01
-6.530761718750000000e-02 -5.596923828125000000e-02 -3.110351562500000000e-01 -5.292679520979410857e-01 -6.009152081131740042e-01 -5.989794216334585197e-01
-6.408691406250000000e-02 -5.615234375000000000e-02 -3.120117187500000000e-01 6.611966629972513276e-01 5.583575760297125878e-01 5.010546777862897594e-01
-6.298828125000000000e-02 -5.651855468750000000e-02 -3.142089843750000000e-01 7.573397505624541726e-01 4.671581686259171362e-01 4.562891053970925537e-01
-6.195068359375000000e-02 -5.688476562500000000e-02 -3.161621093750000000e-01 9.190195239285635642e-01 2.740096097119891216e-01 2.834110943904630808e-01
-6.140136718750000000e-02 -5.776977539062500000e-02 -3.210449218750000000e-01 9.404018421538169470e-01 1.200015813799175796e-01 3.181886166097501190e-01
-6.027221679687500000e-02 -5.813598632812500000e-02 -3.232421875000000000e-01 8.637588765178010330e-01 1.481959455248444413e-01 4.816207688282383992e-01
-5.911254882812500000e-02 -5.850219726562500000e-02 -3.251953125000000000e-01 8.132396199959108785e-01 2.155891321961259377e-01 5.405207179635466153e-01
-5.795288085937500000e-02 -5.886840820312500000e-02 -3.271484375000000000e-01 -6.288772040703739519e-01 -2.423945959558650443e-01 -7.387545749787424176e-01
-3.796386718750000000e-02 -5.886840820312500000e-02 -3.271484375000000000e-01 -3.628952116399222771e-01 2.128752452724445576e-01 9.071886216873603637e-01
-3.631591796875000000e-02 -5.868530273437500000e-02 -3.261718750000000000e-01 -4.219604659993582696e-01 1.980643714185111037e-01 8.847145697388477670e-01
-3.466796875000000000e-02 -5.850219726562500000e-02 -3.251953125000000000e-01 -4.652805751120438482e-01 1.566618344556074682e-01 8.711894489997050739e-01
-3.305053710937500000e-02 -5.831909179687500000e-02 -3.242187500000000000e-01 -6.810079473340741041e-01 1.430632077960748982e-01 7.181650884322685613e-01
-3.105163574218750000e-02 -5.740356445312500000e-02 -3.190917968750000000e-01 9.028213134099570825e-01 -1.806739430107225930e-01 -3.902186596892540105e-01
-2.908325195312500000e-02 -5.651855468750000000e-02 -3.142089843750000000e-01 6.186933227897382093e-01 -4.769540169708457178e-01 -6.242863429795391106e-01
-2.752685546875000000e-02 -5.633544921875000000e-02 -3.129882812500000000e-01 -4.914903859127224273e-01 5.528177805636406150e-01 6.729262233321374742e-01
-2.597045898437500000e-02 -5.615234375000000000e-02 -3.120117187500000000e-01 -4.485342567939826219e-01 5.754724338747222445e-01 6.838483006724320745e-01
-2.441406250000000000e-02 -5.596923828125000000e-02 -3.110351562500000000e-01 -4.005946186991415359e-01 5.822022450527843951e-01 7.075058284740749492e-01
-2.288818359375000000e-02 -5.578613281250000000e-02 -3.100585937500000000e-01 -3.330804500722749362e-01 5.804760907100864342e-01 7.430376315460652803e-01
-2.142333984375000000e-02 -5.578613281250000000e-02 -3.100585937500000000e-01 -2.798399099138358936e-01 5.873440756480107217e-01 7.594185681299872037e-01
-1.991271972656250000e-02 -5.560302734375000000e-02 -3.090820312500000000e-01 -2.228223509220594312e-01 6.099900487961943396e-01 7.604356253485123895e-01
-1.846313476562500000e-02 -5.560302734375000000e-02 -3.090820312500000000e-01 -1.983560991498503345e-01 6.284421665436217275e-01 7.521404797243753659e-01
-1.699829101562500000e-02 -5.560302734375000000e-02 -3.090820312500000000e-01 -1.805207104346173708e-01 6.309978987064318590e-01 7.544891814547434183e-01
-1.550292968750000000e-02 -5.541992187500000000e-02 -3.081054687500000000e-01 -1.346099424935199573e-01 6.421831125562021958e-01 7.546396579358386481e-01
-1.406097412109375000e-02 -5.541992187500000000e-02 -3.081054687500000000e-01 -9.688226263878617350e-02 6.365137697568079567e-01 7.651562246338760032e-01
-1.261138916015625000e-02 -5.541992187500000000e-02 -3.081054687500000000e-01 -1.584033291418483758e-02 6.398420573102128195e-01 7.683431691309569045e-01
-1.116180419921875000e-02 -5.541992187500000000e-02 -3.081054687500000000e-01 5.423524941381015207e-02 6.572890447454602381e-01 7.516845411331950499e-01
-9.712219238281250000e-03 -5.541992187500000000e-02 -3.081054687500000000e-01 9.366704492617582145e-02 6.727362774789769073e-01 7.339294146295861632e-01
-8.270263671875000000e-03 -5.541992187500000000e-02 -3.081054687500000000e-01 1.077441585570240168e-01 6.859189524681333916e-01 7.196571315160138482e-01
-6.843566894531250000e-03 -5.560302734375000000e-02 -3.090820312500000000e-01 1.078598184128005816e-01 6.851991313251363236e-01 7.203252112783754546e-01
-5.393981933593750000e-03 -5.560302734375000000e-02 -3.090820312500000000e-01 9.403249676811561986e-02 6.708829084411691568e-01 7.355773329250109294e-01
-3.940582275390625000e-03 -5.560302734375000000e-02 -3.090820312500000000e-01 5.483386143300501142e-02 6.546752347079874967e-01 7.539188183752860706e-01
-2.489089965820312500e-03 -5.560302734375000000e-02 -3.090820312500000000e-01 1.430164504695194405e-02 6.267745913633000487e-01 7.790693644152101305e-01
-1.037597656250000000e-03 -5.560302734375000000e-02 -3.090820312500000000e-01 -1.012684219449612300e-05 6.077358360683026151e-01 7.941392531891419138e-01
4.141330718994140625e-04 -5.560302734375000000e-02 -3.090820312500000000e-01 9.844856194975926464e-06 6.077358342764114241e-01 7.941392545639792688e-01
1.866340637207031250e-03 -5.560302734375000000e-02 -3.090820312500000000e-01 9.961771916683313596e-06 6.077358162691418597e-01 7.941392683430551491e-01
3.316879272460937500e-03 -5.560302734375000000e-02 -3.090820312500000000e-01 1.004682623317588117e-05 6.077357965393156425e-01 7.941392834407482448e-01
4.768371582031250000e-03 -5.560302734375000000e-02 -3.090820312500000000e-01 6.024243124668901078e-05 6.078134862348213430e-01 7.940798211275250651e-01
6.221771240234375000e-03 -5.560302734375000000e-02 -3.090820312500000000e-01 7.828964477227121424e-03 6.280847401876289426e-01 7.781055625419041055e-01
7.671356201171875000e-03 -5.560302734375000000e-02 -3.090820312500000000e-01 9.319468899645848292e-03 6.466888525913496721e-01 7.626969748422449680e-01
9.124755859375000000e-03 -5.560302734375000000e-02 -3.090820312500000000e-01 4.760243110428971462e-03 6.637811711796953729e-01 7.479116905576763674e-01
1.057434082031250000e-02 -5.560302734375000000e-02 -3.090820312500000000e-01 7.158050391988364514e-03 6.889891704667246985e-01 7.247362867237713280e-01
1.202392578125000000e-02 -5.560302734375000000e-02 -3.090820312500000000e-01 3.919966729796161425e-02 6.967479792730435495e-01 7.162441200196059121e-01
1.348114013671875000e-02 -5.560302734375000000e-02 -3.090820312500000000e-01 7.865598161961283308e-02 6.922993027308833591e-01 7.173108893595495639e-01
1.493072509765625000e-02 -5.560302734375000000e-02 -3.090820312500000000e-01 1.208335856392874080e-01 6.973238149329031854e-01 7.064975171286700384e-01
1.643371582031250000e-02 -5.578613281250000000e-02 -3.100585937500000000e-01 -2.161456390792403370e-01 -6.917807621649063599e-01 -6.889995934727161098e-01
1.788330078125000000e-02 -5.578613281250000000e-02 -3.100585937500000000e-01 2.808652039440844850e-01 6.776634395249333531e-01 6.796226893980841233e-01
1.940917968750000000e-02 -5.596923828125000000e-02 -3.110351562500000000e-01 -3.842923895800141043e-01 -6.626390144590358355e-01 -6.428288231151746412e-01
2.093505859375000000e-02 -5.615234375000000000e-02 -3.120117187500000000e-01 4.640872713512499415e-01 6.066813064311475934e-01 6.454152128643602104e-01
2.247619628906250000e-02 -5.633544921875000000e-02 -3.129882812500000000e-01 -5.095760849133963433e-01 -6.107218956200786142e-01 -6.060948604752832702e-01
2.401733398437500000e-02 -5.651855468750000000e-02 -3.142089843750000000e-01 -6.277772144331043025e-01 -4.942935291749417370e-01 -6.013066406205681558e-01
2.639770507812500000e-02 -5.850219726562500000e-02 -3.251953125000000000e-01 -5.989595072346057814e-01 -5.618029344001980452e-02 -7.988061612946357748e-01
2.801513671875000000e-02 -5.868530273437500000e-02 -3.261718750000000000e-01 -5.473550423808813958e-01 -7.555979409251468992e-02 -8.334825583639530189e-01
2.963256835937500000e-02 -5.886840820312500000e-02 -3.271484375000000000e-01 -4.410837304913717838e-01 -1.261110420619546146e-01 -8.885612796908622935e-01
5.535888671875000000e-02 -5.688476562500000000e-02 -3.161621093750000000e-01 7.641828334205404971e-01 -5.096940069115388772e-01 -3.952677781249249178e-01
5.612182617187500000e-02 -5.615234375000000000e-02 -3.120117187500000000e-01 4.645167058943922012e-01 -6.910452743380777196e-01 -5.537875574261610367e-01
5.758666992187500000e-02 -5.615234375000000000e-02 -3.120117187500000000e-01 4.591959648713073161e-01 -6.757405505306247617e-01 -5.766400733685418389e-01
5.886840820312500000e-02 -5.596923828125000000e-02 -3.110351562500000000e-01 3.036606794994881620e-01 -6.824655498798941622e-01 -6.648540929805897282e-01
6.033325195312500000e-02 -5.596923828125000000e-02 -3.110351562500000000e-01 -2.240488764711281167e-01 6.684687340506244579e-01 7.091908435314012715e-01
6.158447265625000000e-02 -5.578613281250000000e-02 -3.100585937500000000e-01 -1.546213948292294860e-01 6.492028998887727775e-01 7.447333878892981041e-01
6.304931640625000000e-02 -5.578613281250000000e-02 -3.100585937500000000e-01 -9.035517921836058730e-02 6.420009785629359200e-01 7.613610740723817383e-01
6.451416015625000000e-02 -5.578613281250000000e-02 -3.100585937500000000e-01 -4.087101688306862129e-02 6.206825169814927934e-01 7.829960236760228343e-01
6.591796875000000000e-02 -5.578613281250000000e-02 -3.100585937500000000e-01 1.252655364358775037e-05 6.077346536278832589e-01 7.941401580469800159e-01
6.738281250000000000e-02 -5.578613281250000000e-02 -3.100585937500000000e-01 6.062189300983533702e-02 5.695146059998401622e-01 8.197427033165655130e-01
6.884765625000000000e-02 -5.578613281250000000e-02 -3.100585937500000000e-01 1.082702130663870665e-01 5.527647224050584729e-01 8.262739997283091720e-01
7.031250000000000000e-02 -5.578613281250000000e-02 -3.100585937500000000e-01 1.976125756806556277e-01 5.130434465764470708e-01 8.353057475306975288e-01
7.202148437500000000e-02 -5.596923828125000000e-02 -3.110351562500000000e-01 3.111805511681728920e-01 4.880820071092134560e-01 8.154401381529571280e-01
7.348632812500000000e-02 -5.596923828125000000e-02 -3.110351562500000000e-01 4.337487840323071553e-01 4.388983870813705779e-01 7.869118109215710311e-01
7.519531250000000000e-02 -5.615234375000000000e-02 -3.120117187500000000e-01 5.328574623808756128e-01 4.137508409442674506e-01 7.381552454619051407e-01
7.714843750000000000e-02 -5.651855468750000000e-02 -3.142089843750000000e-01 6.142228922496029142e-01 3.504863047012898303e-01 7.070287044055336700e-01
7.885742187500000000e-02 -5.670166015625000000e-02 -3.151855468750000000e-01 6.612316528003076010e-01 3.314301968499494544e-01 6.729983105112354869e-01
8.056640625000000000e-02 -5.688476562500000000e-02 -3.161621093750000000e-01 7.222640267927520341e-01 3.023876590784580487e-01 6.220099510764834916e-01
-8.782958984375000000e-02 -5.780029296875000000e-02 -3.129882812500000000e-01 3.320623670700785790e-01 -2.726312035511942455e-01 -9.029987880534747768e-01
-8.575439453125000000e-02 -5.743408203125000000e-02 -3.110351562500000000e-01 3.597284173904712890e-01 -3.069814304327639354e-01 -8.811117222527465875e-01
-8.404541015625000000e-02 -5.725097656250000000e-02 -3.100585937500000000e-01 -3.970088045388497910e-01 3.537451460100821676e-01 8.469051781592429329e-01
-8.233642578125000000e-02 -5.706787109375000000e-02 -3.090820312500000000e-01 -3.410355867938210106e-01 4.023702346538167163e-01 8.495839704260117475e-01
-8.087158203125000000e-02 -5.706787109375000000e-02 -3.090820312500000000e-01 -2.564021167939997126e-01 4.512932030628546420e-01 8.547469797389313229e-01
-7.916259765625000000e-02 -5.688476562500000000e-02 -3.081054687500000000e-01 -2.007406998041735835e-01 5.071080913054155648e-01 8.381793096794437625e-01
-7.769775390625000000e-02 -5.688476562500000000e-02 -3.081054687500000000e-01 -1.173382970532202557e-01 5.479164730250416504e-01 8.282627980492960340e-01
-7.629394531250000000e-02 -5.688476562500000000e-02 -3.081054687500000000e-01 -7.403647897673365508e-02 5.642526910672742702e-01 8.222758055567893631e-01
-7.482910156250000000e-02 -5.688476562500000000e-02 -3.081054687500000000e-01 -2.105777442085662518e-02 6.062042019340186938e-01 7.950302105542781383e-01
-7.336425781250000000e-02 -5.688476562500000000e-02 -3.081054687500000000e-01 1.561248391608939013e-04 6.114776182887676770e-01 7.912617126823024982e-01
-7.189941406250000000e-02 -5.688476562500000000e-02 -3.081054687500000000e-01 -8.604947992329946781e-05 6.114716795873037514e-01 7.912663127280024078e-01
-7.049560546875000000e-02 -5.688476562500000000e-02 -3.081054687500000000e-01 6.644419882543142752e-02 6.366190704914934662e-01 7.683106972631535969e-01
-6.903076171875000000e-02 -5.688476562500000000e-02 -3.081054687500000000e-01 1.637462920369712749e-01 6.425059282247566061e-01 7.485808466960577334e-01
-6.756591796875000000e-02 -5.688476562500000000e-02 -3.081054687500000000e-01 3.034851262483764245e-01 6.450040601338775659e-01 7.013319759976870404e-01
-6.634521484375000000e-02 -5.706787109375000000e-02 -3.090820312500000000e-01 4.202835975889201436e-01 6.221942649926411883e-01 6.604816380551252752e-01
-6.512451171875000000e-02 -5.725097656250000000e-02 -3.100585937500000000e-01 5.201684429153871081e-01 5.874634720162782431e-01 6.199285926956115134e-01
-6.384277343750000000e-02 -5.743408203125000000e-02 -3.110351562500000000e-01 6.657515291194355811e-01 5.513515932853181312e-01 5.027786014309620910e-01
-6.262207031250000000e-02 -5.761718750000000000e-02 -3.120117187500000000e-01 7.483047350356357708e-01 4.957677925791017515e-01 4.407429175431998303e-01
-6.173706054687500000e-02 -5.816650390625000000e-02 -3.151855468750000000e-01 9.263927831689782177e-01 2.924869159224432469e-01 2.371662187298443358e-01
-6.121826171875000000e-02 -5.911254882812500000e-02 -3.200683593750000000e-01 9.453860710804911083e-01 1.633304395375836104e-01 2.820786133818943275e-01
-6.027221679687500000e-02 -5.966186523437500000e-02 -3.232421875000000000e-01 8.274041479164532253e-01 2.665434179711872464e-01 4.943247741585330979e-01
-5.911254882812500000e-02 -6.002807617187500000e-02 -3.251953125000000000e-01 7.776227032239040327e-01 3.175162313470096809e-01 5.426659877511583741e-01
-5.776977539062500000e-02 -6.021118164062500000e-02 -3.261718750000000000e-01 -6.441585324281651204e-01 -3.580324370217556340e-01 -6.759234861582004150e-01
-5.642700195312500000e-02 -6.039428710937500000e-02 -3.271484375000000000e-01 -5.178868504721949595e-01 -3.871834658326116507e-01 -7.628120174026086220e-01
-3.952026367187500000e-02 -6.039428710937500000e-02 -3.271484375000000000e-01 3.171135477130135327e-01 -3.421722689954723173e-01 -8.845095455603382284e-01
-3.784179687500000000e-02 -6.021118164062500000e-02 -3.261718750000000000e-01 -3.738260549936107680e-01 3.687536180279483156e-01 8.510433889051790546e-01
-3.631591796875000000e-02 -6.021118164062500000e-02 -3.261718750000000000e-01 -4.250978346085533266e-01 3.204089546055639004e-01 8.465399770948143221e-01
-3.466796875000000000e-02 -6.002807617187500000e-02 -3.251953125000000000e-01 -4.696601705657490466e-01 3.406987555779223409e-01 8.144591347218144151e-01
-3.305053710937500000e-02 -5.984497070312500000e-02 -3.242187500000000000e-01 -6.270066217348186921e-01 2.843420121301141745e-01 7.252670655961761526e-01
-3.036499023437500000e-02 -5.761718750000000000e-02 -3.120117187500000000e-01 6.371077570703850279e-01 -4.896072227436858992e-01 -5.952969622952549722e-01
-2.899169921875000000e-02 -5.780029296875000000e-02 -3.129882812500000000e-01 -5.705070853694220734e-01 4.998989654841696217e-01 6.516307925897487641e-01
-2.743530273437500000e-02 -5.761718750000000000e-02 -3.120117187500000000e-01 -5.162159301252922106e-01 5.322085202510749014e-01 6.710254871888553518e-01
-2.587890625000000000e-02 -5.743408203125000000e-02 -3.110351562500000000e-01 -4.421254486346595791e-01 5.794853016488119568e-01 6.846326554018486998e-01
-2.433776855468750000e-02 -5.725097656250000000e-02 -3.100585937500000000e-01 -3.870236989369442715e-01 5.971005874964776527e-01 7.026261771899240394e-01
-2.281188964843750000e-02 -5.706787109375000000e-02 -3.090820312500000000e-01 -3.265446193989062773e-01 6.101083464541797730e-01 7.218977885605205591e-01
-2.136230468750000000e-02 -5.706787109375000000e-02 -3.090820312500000000e-01 -2.575394937403191475e-01 6.063225768483307965e-01 7.523605132966376674e-01
-1.983642578125000000e-02 -5.688476562500000000e-02 -3.081054687500000000e-01 -2.296138351854531690e-01 6.325236739051581791e-01 7.397237921284867124e-01
-1.840209960937500000e-02 -5.688476562500000000e-02 -3.081054687500000000e-01 -2.042701784519837249e-01 6.293679354799529557e-01 7.497797649876239978e-01
-1.695251464843750000e-02 -5.688476562500000000e-02 -3.081054687500000000e-01 -1.680596554040260648e-01 6.359260533107814473e-01 7.532290534399568305e-01
-1.545715332031250000e-02 -5.670166015625000000e-02 -3.071289062500000000e-01 -1.276948831030860765e-01 6.324445210520921457e-01 7.640078171200076484e-01
-1.401519775390625000e-02 -5.670166015625000000e-02 -3.071289062500000000e-01 -7.403012165937900013e-02 6.197111026188636407e-01 7.813307176721071556e-01
-1.256561279296875000e-02 -5.670166015625000000e-02 -3.071289062500000000e-01 -2.054108984657358403e-02 6.149848665865934594e-01 7.882713222599088132e-01
-1.112365722656250000e-02 -5.670166015625000000e-02 -3.071289062500000000e-01 1.420946859907322966e-02 6.313223520625780294e-01 7.753903396279232529e-01
-9.681701660156250000e-03 -5.670166015625000000e-02 -3.071289062500000000e-01 5.493845170916542703e-02 6.591254078732456945e-01 7.500236417738624928e-01
-8.239746093750000000e-03 -5.670166015625000000e-02 -3.071289062500000000e-01 9.461303698445708288e-02 6.746202187925005589e-01 7.320764534042439875e-01
-6.801605224609375000e-03 -5.670166015625000000e-02 -3.071289062500000000e-01 1.086566189443179536e-01 6.879163996247641411e-01 7.176104558093417962e-01
-5.374908447265625000e-03 -5.688476562500000000e-02 -3.081054687500000000e-01 1.085909931198383721e-01 6.873608136946135483e-01 7.181525659707176379e-01
-3.929138183593750000e-03 -5.688476562500000000e-02 -3.081054687500000000e-01 9.444518979086038990e-02 6.732988307467775435e-01 7.333135691096889230e-01
-2.481460571289062500e-03 -5.688476562500000000e-02 -3.081054687500000000e-01 5.477388947773379618e-02 6.574003630776640295e-01 7.515481246446142904e-01
-1.033782958984375000e-03 -5.688476562500000000e-02 -3.081054687500000000e-01 1.419706430745105129e-02 6.295907316219498950e-01 7.767972412546197969e-01
4.129409790039062500e-04 -5.688476562500000000e-02 -3.081054687500000000e-01 -2.150343604920574306e-05 6.106119483474703458e-01 7.919299514937595541e-01
1.859664916992187500e-03 -5.688476562500000000e-02 -3.081054687500000000e-01 -2.142901154929051325e-05 6.106120012651159445e-01 7.919299106940004274e-01
3.307342529296875000e-03 -5.688476562500000000e-02 -3.081054687500000000e-01 -2.132099979464083418e-05 6.106120554874377993e-01 7.919298688891720506e-01
4.753112792968750000e-03 -5.688476562500000000e-02 -3.081054687500000000e-01 -2.141109553731340736e-05 6.106121019201141698e-01 7.919298330851447520e-01
6.198883056640625000e-03 -5.688476562500000000e-02 -3.081054687500000000e-01 -2.125223607828891553e-05 6.106121586052202233e-01 7.919297893827558221e-01
7.648468017578125000e-03 -5.688476562500000000e-02 -3.081054687500000000e-01 -1.249501055725550126e-02 6.281371978393677225e-01 7.780022721057316959e-01
9.094238281250000000e-03 -5.688476562500000000e-02 -3.081054687500000000e-01 -1.846553619134232854e-02 6.447639973040018013e-01 7.641586299674507643e-01
1.054382324218750000e-02 -5.688476562500000000e-02 -3.081054687500000000e-01 -5.800706406393619369e-03 6.453735727232823294e-01 7.638450781641347165e-01
1.198577880859375000e-02 -5.688476562500000000e-02 -3.081054687500000000e-01 2.093760036102183114e-02 6.623998504164740897e-01 7.488578336769634580e-01
1.343536376953125000e-02 -5.688476562500000000e-02 -3.081054687500000000e-01 7.270061343935056708e-02 6.847766604258298528e-01 7.251176084895399887e-01
1.488494873046875000e-02 -5.688476562500000000e-02 -3.081054687500000000e-01 1.057125566166761815e-01 6.835204691377541053e-01 7.222358504278713065e-01
1.632690429687500000e-02 -5.688476562500000000e-02 -3.081054687500000000e-01 1.782936046586388323e-01 6.771242827609631476e-01 7.139426421171943815e-01
1.783752441406250000e-02 -5.706787109375000000e-02 -3.090820312500000000e-01 -2.665881248253108016e-01 -6.843699941502680018e-01 -6.786519599978230177e-01
1.928710937500000000e-02 -5.706787109375000000e-02 -3.090820312500000000e-01 -3.188563002243621769e-01 -7.089390708906966321e-01 -6.290755547403406034e-01
2.079772949218750000e-02 -5.725097656250000000e-02 -3.100585937500000000e-01 -4.587913676903542237e-01 -6.690808453634280450e-01 -5.846719621296838643e-01
2.233886718750000000e-02 -5.743408203125000000e-02 -3.110351562500000000e-01 6.015589535886596284e-01 5.667367672069349993e-01 5.629709246960710178e-01
2.394104003906250000e-02 -5.780029296875000000e-02 -3.129882812500000000e-01 7.222324364245483741e-01 4.173121489586220645e-01 5.515712810759800799e-01
2.632141113281250000e-02 -5.984497070312500000e-02 -3.242187500000000000e-01 -6.049321352312160283e-01 -1.455438991670809368e-01 -7.828627498992685174e-01
2.801513671875000000e-02 -6.021118164062500000e-02 -3.261718750000000000e-01 -5.022439174478451340e-01 -1.759884883657866772e-01 -8.466280761641249430e-01
2.963256835937500000e-02 -6.039428710937500000e-02 -3.271484375000000000e-01 -4.112529512233141782e-01 -2.326794463451211104e-01 -8.813235985485936563e-01
5.593872070312500000e-02 -5.743408203125000000e-02 -3.110351562500000000e-01 4.794824235626429232e-01 -6.681613212302708327e-01 -5.689086519875690140e-01
5.722045898437500000e-02 -5.725097656250000000e-02 -3.100585937500000000e-01 -3.313857320459184796e-01 6.555490905080383346e-01 6.785564726170362215e-01
5.868530273437500000e-02 -5.725097656250000000e-02 -3.100585937500000000e-01 -2.835953254505645393e-01 6.647761401373675216e-01 6.911196530895726831e-01
5.993652343750000000e-02 -5.706787109375000000e-02 -3.090820312500000000e-01 -2.133900427571797098e-01 6.578175607724241480e-01 7.223162371091397249e-01
6.140136718750000000e-02 -5.706787109375000000e-02 -3.090820312500000000e-01 -1.225357531298388175e-01 6.469384493934337010e-01 7.526324680090028529e-01
6.280517578125000000e-02 -5.706787109375000000e-02 -3.090820312500000000e-01 -7.813608287307545475e-02 6.445862172762851783e-01 7.605283433578934327e-01
6.427001953125000000e-02 -5.706787109375000000e-02 -3.090820312500000000e-01 -1.516335598030260808e-02 6.008857870586216121e-01 7.991910557221942879e-01
6.573486328125000000e-02 -5.706787109375000000e-02 -3.090820312500000000e-01 3.856385694011120469e-02 5.589275794314446655e-01 8.283192560171522834e-01
6.719970703125000000e-02 -5.706787109375000000e-02 -3.090820312500000000e-01 6.801779921360462389e-02 5.391275219198284896e-01 8.394731050478762002e-01
6.860351562500000000e-02 -5.706787109375000000e-02 -3.090820312500000000e-01 1.448713631016646242e-01 4.958812009457559400e-01 8.562208375773510127e-01
7.006835937500000000e-02 -5.706787109375000000e-02 -3.090820312500000000e-01 2.580029743391547004e-01 4.343825111699295971e-01 8.629868476528801402e-01
7.177734375000000000e-02 -5.725097656250000000e-02 -3.100585937500000000e-01 3.530305037200930363e-01 3.547356380389133368e-01 8.657552139884936437e-01
7.348632812500000000e-02 -5.743408203125000000e-02 -3.110351562500000000e-01 4.849004970236076573e-01 3.285538444858280838e-01 8.105084078896656052e-01
7.519531250000000000e-02 -5.761718750000000000e-02 -3.120117187500000000e-01 5.783813013035171702e-01 2.955547880813660377e-01 7.603436312251380391e-01
7.690429687500000000e-02 -5.780029296875000000e-02 -3.129882812500000000e-01 6.253812652065868782e-01 2.512304477342921505e-01 7.387702858533470307e-01
7.885742187500000000e-02 -5.816650390625000000e-02 -3.151855468750000000e-01 6.939537037787023577e-01 2.083766596754793587e-01 6.892078240373583631e-01
8.056640625000000000e-02 -5.834960937500000000e-02 -3.161621093750000000e-01 7.799016763808821473e-01 1.596553774456140329e-01 6.051971047774332702e-01
-8.575439453125000000e-02 -5.889892578125000000e-02 -3.110351562500000000e-01 3.598192435965584246e-01 -3.359685153145403058e-01 -8.704339542176328104e-01
-8.380126953125000000e-02 -5.850219726562500000e-02 -3.090820312500000000e-01 -3.913639655870519429e-01 3.798381482192511593e-01 8.381868691391837212e-01
-8.233642578125000000e-02 -5.850219726562500000e-02 -3.090820312500000000e-01 -3.550987871906606252e-01 3.945655082582534279e-01 8.474803307620939474e-01
-8.062744140625000000e-02 -5.831909179687500000e-02 -3.081054687500000000e-01 -2.895980871599828088e-01 4.162135788591867502e-01 8.619160079070966596e-01
-7.916259765625000000e-02 -5.831909179687500000e-02 -3.081054687500000000e-01 -2.191949998929381416e-01 4.623076899116442262e-01 8.592002978761668075e-01
-7.745361328125000000e-02 -5.813598632812500000e-02 -3.071289062500000000e-01 -1.567372202296765382e-01 4.992689827125085245e-01 8.521525254881844313e-01
-7.604980468750000000e-02 -5.813598632812500000e-02 -3.071289062500000000e-01 -8.534039732192502670e-02 5.439978558855711466e-01 8.347354966555796674e-01
-7.458496093750000000e-02 -5.813598632812500000e-02 -3.071289062500000000e-01 -6.104301733710649353e-02 5.759188737928435664e-01 8.152246321374031490e-01
-7.312011718750000000e-02 -5.813598632812500000e-02 -3.071289062500000000e-01 1.330815235618279882e-04 6.152047440706349679e-01 7.883673668806265855e-01
-7.171630859375000000e-02 -5.813598632812500000e-02 -3.071289062500000000e-01 -1.458677465306763247e-04 6.153008535331486728e-01 7.882923558959449295e-01
-7.025146484375000000e-02 -5.813598632812500000e-02 -3.071289062500000000e-01 5.565952186425363046e-02 6.236806791846201126e-01 7.796950865804231912e-01
-6.878662109375000000e-02 -5.813598632812500000e-02 -3.071289062500000000e-01 1.763093528386994180e-01 6.334527015958193452e-01 7.534272937334807185e-01
-6.738281250000000000e-02 -5.813598632812500000e-02 -3.071289062500000000e-01 2.926097601517431146e-01 6.283601159708080974e-01 7.207933774120653947e-01
-6.616210937500000000e-02 -5.831909179687500000e-02 -3.081054687500000000e-01 4.185152581016066686e-01 6.089034585433130697e-01 6.738557389457607849e-01
-6.488037109375000000e-02 -5.850219726562500000e-02 -3.090820312500000000e-01 5.141085275969170532e-01 5.709028121636214870e-01 6.401268631418297606e-01
-6.365966796875000000e-02 -5.871582031250000000e-02 -3.100585937500000000e-01 6.870064530490962440e-01 5.195528837431711011e-01 5.080225727889013942e-01
-6.240844726562500000e-02 -5.889892578125000000e-02 -3.110351562500000000e-01 7.590862656587332724e-01 4.843488876312078695e-01 4.349645920516870823e-01
-6.155395507812500000e-02 -5.947875976562500000e-02 -3.142089843750000000e-01 9.445321739968145502e-01 2.493514479716191778e-01 2.137354151265250524e-01
-6.121826171875000000e-02 -6.060791015625000000e-02 -3.200683593750000000e-01 9.274082929178617540e-01 1.931835903430011159e-01 3.203029170166347694e-01
-6.008911132812500000e-02 -6.097412109375000000e-02 -3.220214843750000000e-01 8.073663354063298492e-01 3.224977814174236901e-01 4.941202094970344461e-01
-5.892944335937500000e-02 -6.137084960937500000e-02 -3.242187500000000000e-01 7.528721731549995466e-01 3.710451457909254569e-01 5.436073865151752615e-01
-5.758666992187500000e-02 -6.155395507812500000e-02 -3.251953125000000000e-01 5.879734766564860271e-01 4.482308392919173712e-01 6.733322400243048067e-01
-5.624389648437500000e-02 -6.173706054687500000e-02 -3.261718750000000000e-01 4.725082501743561592e-01 4.740543545299237271e-01 7.429726929493339904e-01
-5.487060546875000000e-02 -6.195068359375000000e-02 -3.271484375000000000e-01 -3.388996858207239393e-01 -5.147912458387288170e-01 -7.874877625451864871e-01
-5.334472656250000000e-02 -6.195068359375000000e-02 -3.271484375000000000e-01 -2.613053771465258523e-01 -5.752683494930180830e-01 -7.751037517299803614e-01
-5.178833007812500000e-02 -6.195068359375000000e-02 -3.271484375000000000e-01 -1.550761492617834525e-01 -5.815878754934422634e-01 -7.985655458440223953e-01
-4.412841796875000000e-02 -6.195068359375000000e-02 -3.271484375000000000e-01 1.646200225531819772e-01 -6.015804079348808786e-01 -7.816656964223851478e-01
-4.257202148437500000e-02 -6.195068359375000000e-02 -3.271484375000000000e-01 2.126492677910480633e-01 -5.404546152730200781e-01 -8.140571833342070684e-01
-4.104614257812500000e-02 -6.195068359375000000e-02 -3.271484375000000000e-01 2.559792832379876315e-01 -5.193733808619325210e-01 -8.153072413544553143e-01
-3.939819335937500000e-02 -6.173706054687500000e-02 -3.261718750000000000e-01 -2.877765520353932627e-01 5.009602277255107428e-01 8.162251566423476268e-01
-3.775024414062500000e-02 -6.155395507812500000e-02 -3.251953125000000000e-01 -3.660298740498024728e-01 4.533068835070753200e-01 8.127330439130603379e-01
-3.622436523437500000e-02 -6.155395507812500000e-02 -3.251953125000000000e-01 -4.035895560628877665e-01 4.247767599582764619e-01 8.103580532309837547e-01
-3.457641601562500000e-02 -6.137084960937500000e-02 -3.242187500000000000e-01 -4.724470501721023119e-01 4.386934707277831413e-01 7.644225425276850450e-01
-3.295898437500000000e-02 -6.118774414062500000e-02 -3.232421875000000000e-01 6.220003841043999504e-01 -3.441007802782664604e-01 -7.033563642890193757e-01
-3.036499023437500000e-02 -5.908203125000000000e-02 -3.120117187500000000e-01 6.361622140108061929e-01 -4.963550740102228853e-01 -5.907023598811632636e-01
-2.890014648437500000e-02 -5.908203125000000000e-02 -3.120117187500000000e-01 -5.705765862330582916e-01 4.989821494399105939e-01 6.522723156649806731e-01
-2.725219726562500000e-02 -5.871582031250000000e-02 -3.100585937500000000e-01 -5.052612213954098541e-01 5.667138145448559206e-01 6.508045409783470570e-01
-2.571105957031250000e-02 -5.850219726562500000e-02 -3.090820312500000000e-01 -4.537424595662796767e-01 6.230752221490822862e-01 6.370989310386691029e-01
-2.426147460937500000e-02 -5.850219726562500000e-02 -3.090820312500000000e-01 -3.729035304109677429e-01 6.213879529840211635e-01 6.890718169344648425e-01
-2.273559570312500000e-02 -5.831909179687500000e-02 -3.081054687500000000e-01 -3.148206151485281046e-01 6.265747650046009642e-01 7.129460317141345094e-01
-2.122497558593750000e-02 -5.813598632812500000e-02 -3.071289062500000000e-01 -2.571498668456657644e-01 6.437393916160560892e-01 7.207451294757715177e-01
-1.977539062500000000e-02 -5.813598632812500000e-02 -3.071289062500000000e-01 -2.443663038018744071e-01 6.272282061301981404e-01 7.395065158610190093e-01
-1.834106445312500000e-02 -5.813598632812500000e-02 -3.071289062500000000e-01 -2.042368122015214560e-01 6.505448165199095856e-01 7.314907834284980481e-01
-1.683044433593750000e-02 -5.795288085937500000e-02 -3.061523437500000000e-01 -1.453778973764123239e-01 6.451153998194074646e-01 7.501275810622213269e-01
-1.540374755859375000e-02 -5.795288085937500000e-02 -3.061523437500000000e-01 -1.212518884705114930e-01 6.367767384771177985e-01 7.614547687661946673e-01
-1.396179199218750000e-02 -5.795288085937500000e-02 -3.061523437500000000e-01 -5.929684011321310899e-02 6.385065334001047699e-01 7.673286724461487740e-01
-1.252746582031250000e-02 -5.795288085937500000e-02 -3.061523437500000000e-01 3.377199594410384547e-05 6.328346615386418739e-01 7.742869558598575175e-01
-1.109313964843750000e-02 -5.795288085937500000e-02 -3.061523437500000000e-01 3.077034270158112111e-05 6.328346542494933669e-01 7.742869619424764815e-01
-9.651184082031250000e-03 -5.795288085937500000e-02 -3.061523437500000000e-01 1.421866869568236789e-02 6.509669717191798322e-01 7.589728790881021814e-01
-8.216857910156250000e-03 -5.795288085937500000e-02 -3.061523437500000000e-01 5.462632115751884371e-02 6.775785016243491832e-01 7.334189383792167893e-01
-6.778717041015625000e-03 -5.795288085937500000e-02 -3.061523437500000000e-01 9.380463865070445828e-02 6.927238578110009870e-01 7.150764620563696550e-01
-5.340576171875000000e-03 -5.795288085937500000e-02 -3.061523437500000000e-01 1.234725704967144511e-01 6.897603955047973967e-01 7.134319316711295045e-01
-3.913879394531250000e-03 -5.813598632812500000e-02 -3.071289062500000000e-01 1.182778607667344245e-01 6.833442609036493032e-01 7.204519197992953483e-01
-2.471923828125000000e-03 -5.813598632812500000e-02 -3.071289062500000000e-01 9.322676353111111758e-02 6.609785267391592445e-01 7.445912689195630652e-01
-1.030921936035156250e-03 -5.813598632812500000e-02 -3.071289062500000000e-01 3.786550907488317463e-02 6.316293979504691292e-01 7.743452116899979254e-01
4.115104675292968750e-04 -5.813598632812500000e-02 -3.071289062500000000e-01 1.391078575382020098e-04 6.153175059619879761e-01 7.882793587971986815e-01
1.853942871093750000e-03 -5.813598632812500000e-02 -3.071289062500000000e-01 -1.416905603590025062e-04 6.151888737279639363e-01 7.883797495909596886e-01
3.295898437500000000e-03 -5.813598632812500000e-02 -3.071289062500000000e-01 -1.419092364580607998e-04 6.151891928399964016e-01 7.883795005418661184e-01
4.737854003906250000e-03 -5.813598632812500000e-02 -3.071289062500000000e-01 -1.418537101073223889e-04 6.151895297126009909e-01 7.883792376829275028e-01
