-6.591796875000000000e-02 1.860046386718750000e-02 -2.237548828125000000e-01 9.412212776812092230e-01 -2.654173778215139223e-01 2.089404747541837859e-01
-6.512451171875000000e-02 1.867675781250000000e-02 -2.248535156250000000e-01 9.280555724582981725e-01 -1.804159644240262705e-01 3.258265400639563381e-01
-6.439208984375000000e-02 1.875305175781250000e-02 -2.258300781250000000e-01 9.005149181985664386e-01 -1.699415005858189998e-01 4.002408880667608360e-01
-6.359863281250000000e-02 1.884460449218750000e-02 -2.268066406250000000e-01 9.091665342332284627e-01 -1.661262047498082983e-01 3.818616203885441540e-01
-6.311035156250000000e-02 1.901245117187500000e-02 -2.288818359375000000e-01 9.149860965719199823e-01 -1.303880424991976927e-01 3.818368780687747543e-01
-6.256103515625000000e-02 1.918029785156250000e-02 -2.308349609375000000e-01 8.912789348127623246e-01 1.596996551380013285e-01 4.244029694851718659e-01
-6.201171875000000000e-02 1.934814453125000000e-02 -2.327880859375000000e-01 6.385922822288379042e-01 3.754206229595339339e-01 6.717583292631655878e-01
-6.118774414062500000e-02 1.942443847656250000e-02 -2.338867187500000000e-01 -3.826466560585554122e-01 -4.635501684872307404e-01 -7.991888249360510343e-01
-6.008911132812500000e-02 1.942443847656250000e-02 -2.338867187500000000e-01 3.551884513491120332e-01 4.554439990491123691e-01 8.163405709373825481e-01
-5.899047851562500000e-02 1.942443847656250000e-02 -2.338867187500000000e-01 2.265434980287507338e-01 4.411561586679014213e-01 8.683658717212916489e-01
-5.813598632812500000e-02 1.951599121093750000e-02 -2.348632812500000000e-01 1.306826698691053446e-01 4.133918004900278831e-01 9.011266609547712303e-01
-5.703735351562500000e-02 1.951599121093750000e-02 -2.348632812500000000e-01 9.936230661593276059e-02 4.045960554768818218e-01 9.090814946507872474e-01
-5.593872070312500000e-02 1.951599121093750000e-02 -2.348632812500000000e-01 -9.083152882121661720e-02 -3.856734731285273998e-01 -9.181533670890611454e-01
-5.484008789062500000e-02 1.951599121093750000e-02 -2.348632812500000000e-01 -8.133026231678727735e-02 -3.891164790987715061e-01 -9.175912783615907120e-01
-5.374145507812500000e-02 1.951599121093750000e-02 -2.348632812500000000e-01 9.050096434070881157e-02 3.986858288441432197e-01 9.126111906678880947e-01
-5.261230468750000000e-02 1.951599121093750000e-02 -2.348632812500000000e-01 8.890194341171475667e-02 4.139731614982133379e-01 9.059374514925376820e-01
-5.151367187500000000e-02 1.951599121093750000e-02 -2.348632812500000000e-01 1.007852482398105542e-01 4.064030141431666521e-01 9.081183424161130002e-01
-5.041503906250000000e-02 1.951599121093750000e-02 -2.348632812500000000e-01 8.036176155666542587e-02 3.984684563323422357e-01 9.136546812596266776e-01
-4.931640625000000000e-02 1.951599121093750000e-02 -2.348632812500000000e-01 4.534428803040883166e-02 4.124489124079629421e-01 9.098515209618017741e-01
-4.843139648437500000e-02 1.959228515625000000e-02 -2.358398437500000000e-01 1.555955245324513146e-02 4.284152807751140379e-01 9.034479772105501461e-01
-4.730224609375000000e-02 1.959228515625000000e-02 -2.358398437500000000e-01 4.506017708568288427e-03 -4.233632570944391715e-01 -9.059488111073372707e-01
-4.602050781250000000e-02 1.951599121093750000e-02 -2.348632812500000000e-01 4.523621710748697289e-02 -4.124655251494097619e-01 -9.098493695249920687e-01
-4.489135742187500000e-02 1.951599121093750000e-02 -2.348632812500000000e-01 1.123744299105126215e-01 -4.346674974349556964e-01 -8.935525469584427727e-01
-4.379272460937500000e-02 1.951599121093750000e-02 -2.348632812500000000e-01 1.442282177621083128e-01 -4.305445748063611022e-01 -8.909711500974516474e-01
-4.269409179687500000e-02 1.951599121093750000e-02 -2.348632812500000000e-01 1.662712802236328002e-01 -4.128515222857555012e-01 -8.954928709482442573e-01
-3.125000000000000000e-02 1.800537109375000000e-02 -2.167968750000000000e-01 -2.072944765775111553e-01 -8.012909128199459108e-01 5.612146407682482296e-01
-3.025817871093750000e-02 1.800537109375000000e-02 -2.167968750000000000e-01 -1.669021734304466376e-01 -8.241239806418049207e-01 5.412608696694221067e-01
-2.923583984375000000e-02 1.800537109375000000e-02 -2.167968750000000000e-01 -1.259886714994321866e-01 -8.232459875858806342e-01 5.535276854661890233e-01
-2.809143066406250000e-02 1.792907714843750000e-02 -2.158203125000000000e-01 -9.317453408228838774e-02 -7.932072735950307374e-01 6.017812952514280944e-01
-2.706909179687500000e-02 1.792907714843750000e-02 -2.158203125000000000e-01 -4.246430889059869818e-02 -7.731550401831300823e-01 6.327938576739396970e-01
-2.606201171875000000e-02 1.792907714843750000e-02 -2.158203125000000000e-01 -2.435342679984494815e-02 -7.438808948388048181e-01 6.678683439847434844e-01
-2.503967285156250000e-02 1.792907714843750000e-02 -2.158203125000000000e-01 2.843970878367704444e-05 -7.378225502845422445e-01 6.749947284851912643e-01
-2.403259277343750000e-02 1.792907714843750000e-02 -2.158203125000000000e-01 2.373689974292070599e-05 -7.378224193765228200e-01 6.749948717597298309e-01
-2.301025390625000000e-02 1.792907714843750000e-02 -2.158203125000000000e-01 1.908026244684842676e-05 -7.378223042608847981e-01 6.749949977378365551e-01
-2.200317382812500000e-02 1.792907714843750000e-02 -2.158203125000000000e-01 1.446740115967663135e-05 -7.378222133730217847e-01 6.749950971999942873e-01
-2.099609375000000000e-02 1.792907714843750000e-02 -2.158203125000000000e-01 9.818721184238023337e-06 -7.378221458551920131e-01 6.749951710858623777e-01
-1.997375488281250000e-02 1.792907714843750000e-02 -2.158203125000000000e-01 9.397778255819108433e-06 -7.378221217460563253e-01 6.749951974450109082e-01
-1.896667480468750000e-02 1.792907714843750000e-02 -2.158203125000000000e-01 1.306974353699928706e-05 -7.378221097137841467e-01 6.749952105361064492e-01
-1.794433593750000000e-02 1.792907714843750000e-02 -2.158203125000000000e-01 1.190984298864210134e-05 -7.378220791444374260e-01 6.749952439722336495e-01
-1.693725585937500000e-02 1.792907714843750000e-02 -2.158203125000000000e-01 1.570716545027310118e-05 -7.378220437012413813e-01 6.749952826367073833e-01
-1.591491699218750000e-02 1.792907714843750000e-02 -2.158203125000000000e-01 1.586353616997721857e-05 -7.378220093464022966e-01 6.749953201855445339e-01
-1.491546630859375000e-02 1.792907714843750000e-02 -2.158203125000000000e-01 1.834682594267041442e-05 -7.378219507456298398e-01 6.749953841777788233e-01
-1.390075683593750000e-02 1.792907714843750000e-02 -2.158203125000000000e-01 1.503685164502774182e-05 -7.378219424605791943e-01 6.749953933158292507e-01
-1.288604736328125000e-02 1.792907714843750000e-02 -2.158203125000000000e-01 1.456710555860446969e-05 -7.378219159694934248e-01 6.749954222829256389e-01
-1.187133789062500000e-02 1.792907714843750000e-02 -2.158203125000000000e-01 8.401105575733373322e-06 -7.378219662895235675e-01 6.749953673841639912e-01
-1.085662841796875000e-02 1.792907714843750000e-02 -2.158203125000000000e-01 1.153918097185244559e-05 -7.378218954673115837e-01 6.749954447519412870e-01
-9.841918945312500000e-03 1.792907714843750000e-02 -2.158203125000000000e-01 1.216535356277984918e-05 -7.378218572428196786e-01 6.749954865232509205e-01
-8.827209472656250000e-03 1.792907714843750000e-02 -2.158203125000000000e-01 1.318299394287885182e-05 -7.378218075383005115e-01 6.749955408349922470e-01
-7.812500000000000000e-03 1.792907714843750000e-02 -2.158203125000000000e-01 1.274510642543814989e-05 -7.378217886725327856e-01 6.749955614651304003e-01
-6.805419921875000000e-03 1.792907714843750000e-02 -2.158203125000000000e-01 1.319038691290287774e-05 -7.378217471512733550e-01 6.749956068424862732e-01
-5.790710449218750000e-03 1.792907714843750000e-02 -2.158203125000000000e-01 1.270111253331787863e-05 -7.378217311105862430e-01 6.749956243855657068e-01
-4.776000976562500000e-03 1.792907714843750000e-02 -2.158203125000000000e-01 1.163993159342731359e-05 -7.378217335675896216e-01 6.749956217190070662e-01
-3.765106201171875000e-03 1.792907714843750000e-02 -2.158203125000000000e-01 9.028769142500451563e-06 -7.378217911298146081e-01 6.749955588390738059e-01
-2.750396728515625000e-03 1.792907714843750000e-02 -2.158203125000000000e-01 9.611660137115129085e-06 -7.378217501939062783e-01 6.749956035771026430e-01
-1.737594604492187500e-03 1.792907714843750000e-02 -2.158203125000000000e-01 9.241329078629973725e-06 -7.378217417795477351e-01 6.749956127798107941e-01
-7.243156433105468750e-04 1.792907714843750000e-02 -2.158203125000000000e-01 -3.474060790101469228e-04 -7.377188519615669460e-01 6.751079726751297860e-01
2.892017364501953125e-04 1.792907714843750000e-02 -2.158203125000000000e-01 3.813845907793275009e-02 -7.586128528619676681e-01 6.504244747945662208e-01
1.302719116210937500e-03 1.792907714843750000e-02 -2.158203125000000000e-01 7.366545055147941112e-02 -7.802844547857699098e-01 6.210713091221661264e-01
2.315521240234375000e-03 1.792907714843750000e-02 -2.158203125000000000e-01 8.715037888323305670e-02 -7.974591781844148075e-01 5.970457860080304879e-01
3.328323364257812500e-03 1.792907714843750000e-02 -2.158203125000000000e-01 8.105423328003909245e-02 -8.130124730844745518e-01 5.765769071654288647e-01
4.364013671875000000e-03 1.800537109375000000e-02 -2.167968750000000000e-01 5.405807579804568913e-02 -8.228713326948843276e-01 5.656505054094423945e-01
5.378723144531250000e-03 1.800537109375000000e-02 -2.167968750000000000e-01 2.657478782962843008e-03 -8.317388425561977883e-01 5.551607295097471528e-01
6.397247314453125000e-03 1.800537109375000000e-02 -2.167968750000000000e-01 -1.550286608710190785e-02 -8.312316979572040854e-01 5.557099292385092593e-01
7.381439208984375000e-03 1.792907714843750000e-02 -2.158203125000000000e-01 -3.358019961458417330e-02 -8.302454723475469756e-01 5.563855011053426836e-01
8.392333984375000000e-03 1.792907714843750000e-02 -2.158203125000000000e-01 -9.150555411590492044e-03 -8.316152419142446295e-01 5.552768289345161312e-01
9.407043457031250000e-03 1.792907714843750000e-02 -2.158203125000000000e-01 3.580619391162222220e-02 -8.280104663068293958e-01 5.595682122529035407e-01
1.042175292968750000e-02 1.792907714843750000e-02 -2.158203125000000000e-01 8.612579913555161448e-02 -8.152157244970380523e-01 5.727177919848761567e-01
1.148986816406250000e-02 1.800537109375000000e-02 -2.167968750000000000e-01 9.093017521014262750e-02 -8.034458031893031427e-01 5.883931887554004758e-01
1.250457763671875000e-02 1.800537109375000000e-02 -2.167968750000000000e-01 9.091884454591502018e-02 -7.860308250338826630e-01 6.114648851757469306e-01
1.352691650390625000e-02 1.800537109375000000e-02 -2.167968750000000000e-01 8.932604738290873814e-02 -7.722234572736209612e-01 6.290403717531352079e-01
1.454162597656250000e-02 1.800537109375000000e-02 -2.167968750000000000e-01 1.056336084781143853e-01 -7.581620465373638540e-01 6.434530689569897266e-01
1.556396484375000000e-02 1.800537109375000000e-02 -2.167968750000000000e-01 1.323243546459210440e-01 -7.540989084579445834e-01 6.432923918639773531e-01
1.657104492187500000e-02 1.800537109375000000e-02 -2.167968750000000000e-01 1.620475231384826964e-01 -7.562118924528354880e-01 6.339433523254139891e-01
1.766967773437500000e-02 1.809692382812500000e-02 -2.177734375000000000e-01 1.535371535118108532e-01 -7.538073341081363843e-01 6.389059755052186595e-01
1.870727539062500000e-02 1.809692382812500000e-02 -2.177734375000000000e-01 1.654692436713987580e-01 -7.551179142696916591e-01 6.343633540391544479e-01
1.972961425781250000e-02 1.809692382812500000e-02 -2.177734375000000000e-01 1.697448524729687769e-01 -7.512991035454421596e-01 6.377588431928993273e-01
2.075195312500000000e-02 1.809692382812500000e-02 -2.177734375000000000e-01 1.404967404683621357e-01 -7.440297115956596707e-01 6.532078185238181511e-01
2.186584472656250000e-02 1.817321777343750000e-02 -2.187500000000000000e-01 1.328975583357345780e-01 -7.471037890713905227e-01 6.512865477987177520e-01
2.290344238281250000e-02 1.817321777343750000e-02 -2.187500000000000000e-01 1.110532009118281871e-01 -7.454001622442042452e-01 6.573018976798641333e-01
2.690124511718750000e-02 1.959228515625000000e-02 -2.358398437500000000e-01 -8.868581647252803818e-03 3.735243938615800396e-01 9.275779619255221098e-01
2.799987792968750000e-02 1.959228515625000000e-02 -2.358398437500000000e-01 -8.868581647252803818e-03 3.735243938615800396e-01 9.275779619255221098e-01
2.911376953125000000e-02 1.959228515625000000e-02 -2.358398437500000000e-01 -2.874512376583782808e-02 3.420603924937631879e-01 9.392382050080263500e-01
3.022766113281250000e-02 1.959228515625000000e-02 -2.358398437500000000e-01 -2.354915634025485024e-02 2.946371737754537867e-01 9.553189902149309409e-01
3.131103515625000000e-02 1.959228515625000000e-02 -2.358398437500000000e-01 -6.233107490083514453e-03 2.654577922681309876e-01 9.641023332069822427e-01
3.244018554687500000e-02 1.959228515625000000e-02 -2.358398437500000000e-01 -6.092426066097673953e-03 2.654713670361326106e-01 9.640994946729285475e-01
3.353881835937500000e-02 1.959228515625000000e-02 -2.358398437500000000e-01 -6.026023107379332132e-03 2.654781743010979911e-01 9.640980375538917846e-01
3.463745117187500000e-02 1.959228515625000000e-02 -2.358398437500000000e-01 -6.016512192094691618e-03 2.654894586868408179e-01 9.640949895664900904e-01
3.576660156250000000e-02 1.959228515625000000e-02 -2.358398437500000000e-01 1.984180992327261306e-02 2.519225751081333731e-01 9.675439621690870018e-01
3.686523437500000000e-02 1.959228515625000000e-02 -2.358398437500000000e-01 5.395996519035706901e-02 2.669302856958439829e-01 9.622040036993144696e-01
3.796386718750000000e-02 1.959228515625000000e-02 -2.358398437500000000e-01 8.421676483595239016e-02 2.875746725500015200e-01 9.540483972149029768e-01
3.909301757812500000e-02 1.959228515625000000e-02 -2.358398437500000000e-01 1.036903957427467854e-01 3.156967845309781584e-01 9.431775241530693243e-01
4.019165039062500000e-02 1.959228515625000000e-02 -2.358398437500000000e-01 9.722319811657072208e-02 3.433117553361444418e-01 9.341759408141495635e-01
4.129028320312500000e-02 1.959228515625000000e-02 -2.358398437500000000e-01 8.470042230788256410e-02 3.608249182156750279e-01 9.287794231439011616e-01
4.238891601562500000e-02 1.959228515625000000e-02 -2.358398437500000000e-01 5.317671352689102432e-02 3.737403747646624308e-01 9.260077588277804139e-01
4.351806640625000000e-02 1.959228515625000000e-02 -2.358398437500000000e-01 2.916905654804433437e-02 3.870282072085762248e-01 9.216063872201690765e-01
4.479980468750000000e-02 1.968383789062500000e-02 -2.368164062500000000e-01 -1.428062958224646673e-03 3.956249085478105165e-01 9.184110693870822795e-01
4.571533203125000000e-02 1.959228515625000000e-02 -2.358398437500000000e-01 -3.639698350560454515e-02 4.122522385833787828e-01 9.103424363253016516e-01
4.684448242187500000e-02 1.959228515625000000e-02 -2.358398437500000000e-01 -8.041488012196261470e-02 4.114690198094416163e-01 9.078693148201604224e-01
4.794311523437500000e-02 1.959228515625000000e-02 -2.358398437500000000e-01 -1.582960762120430298e-01 3.951544347095080068e-01 9.048730988294878541e-01
4.904174804687500000e-02 1.959228515625000000e-02 -2.358398437500000000e-01 -2.115836263703942954e-01 4.061931966678156702e-01 8.889541360681857407e-01
5.017089843750000000e-02 1.959228515625000000e-02 -2.358398437500000000e-01 -2.687501788300193373e-01 4.102245674003523468e-01 8.714867444086722426e-01
5.105590820312500000e-02 1.951599121093750000e-02 -2.348632812500000000e-01 -2.978811179034568379e-01 4.372108718165432228e-01 8.485950112756996955e-01
5.215454101562500000e-02 1.951599121093750000e-02 -2.348632812500000000e-01 -2.874397708055046463e-01 4.390035964846630279e-01 8.512662453268131646e-01
5.303955078125000000e-02 1.942443847656250000e-02 -2.338867187500000000e-01 -3.081185014526282573e-01 4.917947483228657379e-01 8.143714843881972865e-01
5.413818359375000000e-02 1.942443847656250000e-02 -2.338867187500000000e-01 -3.037325248262418009e-01 4.885304506334164909e-01 8.179758872769951061e-01
5.523681640625000000e-02 1.942443847656250000e-02 -2.338867187500000000e-01 3.322645720474237674e-01 -4.714836541017264349e-01 -8.168864168763156908e-01
5.609130859375000000e-02 1.934814453125000000e-02 -2.327880859375000000e-01 2.985457661756475423e-01 -5.118737489283303743e-01 -8.055157916867012879e-01
5.526733398437500000e-02 1.834106445312500000e-02 -2.208251953125000000e-01 -1.547060472339964188e-01 -8.447205247289881758e-01 5.123604922813772555e-01
5.578613281250000000e-02 1.817321777343750000e-02 -2.187500000000000000e-01 -8.604375549689693981e-02 -8.160922061567337238e-01 5.714805186445335305e-01
5.679321289062500000e-02 1.817321777343750000e-02 -2.187500000000000000e-01 -6.034425860359375615e-02 -8.185976277885982366e-01 5.711886678081612434e-01
5.783081054687500000e-02 1.817321777343750000e-02 -2.187500000000000000e-01 -8.490099021656477563e-02 -8.145122666938239275e-01 5.739003304281464768e-01
5.886840820312500000e-02 1.817321777343750000e-02 -2.187500000000000000e-01 -1.095489210734968827e-01 -8.058061572599851674e-01 5.819583067656383113e-01
5.987548828125000000e-02 1.817321777343750000e-02 -2.187500000000000000e-01 -1.517179854753703816e-01 -7.844976251336425177e-01 6.012862288818613399e-01
6.091308593750000000e-02 1.817321777343750000e-02 -2.187500000000000000e-01 -1.696004084599063988e-01 -7.492042669766164620e-01 6.402567202257729573e-01
6.167602539062500000e-02 1.809692382812500000e-02 -2.177734375000000000e-01 -1.731545043348182156e-01 -7.361476202666790147e-01 6.542967207653334061e-01
6.268310546875000000e-02 1.809692382812500000e-02 -2.177734375000000000e-01 -1.270244421570011772e-01 -7.375213276157406295e-01 6.632699920896605317e-01
6.372070312500000000e-02 1.809692382812500000e-02 -2.177734375000000000e-01 -6.578972764174249865e-02 -7.352134586062336608e-01 6.746353696783805587e-01
6.469726562500000000e-02 1.809692382812500000e-02 -2.177734375000000000e-01 -2.341002906683684146e-04 -7.273945903170240257e-01 6.862193928872767357e-01
6.573486328125000000e-02 1.809692382812500000e-02 -2.177734375000000000e-01 -2.278842927753669406e-04 -7.273952411018942410e-01 6.862187051451352771e-01
6.677246093750000000e-02 1.809692382812500000e-02 -2.177734375000000000e-01 3.303798628555776806e-04 -7.274722184401178904e-01 6.861370579169732142e-01
6.781005859375000000e-02 1.809692382812500000e-02 -2.177734375000000000e-01 2.301451780071522846e-02 -7.406168760095679371e-01 6.715333014380068244e-01
6.878662109375000000e-02 1.809692382812500000e-02 -2.177734375000000000e-01 6.710448109429260899e-02 -7.670275113845973491e-01 6.380954359625345962e-01
6.982421875000000000e-02 1.809692382812500000e-02 -2.177734375000000000e-01 8.504441920329690319e-02 -7.862568010199415536e-01 6.120193539523581805e-01
7.086181640625000000e-02 1.809692382812500000e-02 -2.177734375000000000e-01 9.962437163586965183e-02 -7.978670543282186944e-01 5.945444879853563069e-01
7.220458984375000000e-02 1.817321777343750000e-02 -2.187500000000000000e-01 9.899009119096217890e-02 -7.980362853792263289e-01 5.944232911521309948e-01
7.324218750000000000e-02 1.817321777343750000e-02 -2.187500000000000000e-01 8.232162193436244613e-02 -7.868672216521370721e-01 6.116070029451450285e-01
7.427978515625000000e-02 1.817321777343750000e-02 -2.187500000000000000e-01 6.474100756686194946e-02 -7.679518431038175885e-01 6.372272503688751755e-01
7.531738281250000000e-02 1.817321777343750000e-02 -2.187500000000000000e-01 1.976301478633952374e-04 -7.470564393474636855e-01 6.647605865060097763e-01
7.629394531250000000e-02 1.817321777343750000e-02 -2.187500000000000000e-01 -4.486514912515936898e-02 -7.271243798323643315e-01 6.850381410165253815e-01
7.733154296875000000e-02 1.817321777343750000e-02 -2.187500000000000000e-01 -9.528202755217811404e-02 -7.376913235970988802e-01 6.683807644712002061e-01
7.836914062500000000e-02 1.817321777343750000e-02 -2.187500000000000000e-01 -1.262690725210129650e-01 -7.422764730720121662e-01 6.580894763240462408e-01
7.904052734375000000e-02 1.809692382812500000e-02 -2.177734375000000000e-01 -1.275730683453980552e-01 -7.276613322315630406e-01 6.739689145709368834e-01
7.971191406250000000e-02 1.800537109375000000e-02 -2.167968750000000000e-01 1.066176923738558630e-01 6.782468563783740079e-01 -7.270583673170450956e-01
9.228515625000000000e-02 2.059936523437500000e-02 -2.479248046875000000e-01 9.065738663294853339e-03 -6.105342392868635670e-01 -7.919379742384498044e-01
9.387207031250000000e-02 2.067565917968750000e-02 -2.489013671875000000e-01 -5.470180175466829442e-02 -6.448234461766635395e-01 -7.623715866594482637e-01
9.503173828125000000e-02 2.067565917968750000e-02 -2.489013671875000000e-01 6.643155440983555815e-02 6.578095061233325547e-01 7.502489601675370601e-01
9.619140625000000000e-02 2.067565917968750000e-02 -2.489013671875000000e-01 7.473972304960715962e-02 6.732679342067422468e-01 7.356114888767397719e-01
9.735107421875000000e-02 2.067565917968750000e-02 -2.489013671875000000e-01 7.649871122363882670e-02 6.859756948339732485e-01 7.235919383728441900e-01
9.893798828125000000e-02 2.076721191406250000e-02 -2.498779296875000000e-01 8.791211161234843696e-02 6.987301053691556962e-01 7.099631683986618036e-01
1.000976562500000000e-01 2.076721191406250000e-02 -2.498779296875000000e-01 8.709778254293319699e-02 6.968909632410421606e-01 7.118686407119477755e-01
1.012573242187500000e-01 2.076721191406250000e-02 -2.498779296875000000e-01 6.471979426756634124e-02 6.852305921252740406e-01 7.254449557655013869e-01
1.024169921875000000e-01 2.076721191406250000e-02 -2.498779296875000000e-01 4.070688194141555000e-02 6.645945905869927728e-01 7.460944845829616812e-01
1.036376953125000000e-01 2.076721191406250000e-02 -2.498779296875000000e-01 2.016031620616510686e-02 6.406499292486131925e-01 7.675683877051049375e-01
1.047973632812500000e-01 2.076721191406250000e-02 -2.498779296875000000e-01 1.092862005958638097e-03 6.283252128695174799e-01 7.779500192975841166e-01
1.059570312500000000e-01 2.076721191406250000e-02 -2.498779296875000000e-01 1.897143122693867334e-04 6.280239951432066148e-01 7.781939511027089473e-01
1.071166992187500000e-01 2.076721191406250000e-02 -2.498779296875000000e-01 1.824978719469541447e-04 6.280231703251086817e-01 7.781946184787750243e-01
1.083374023437500000e-01 2.076721191406250000e-02 -2.498779296875000000e-01 1.911651396001514292e-04 6.280229474790026689e-01 7.781947962404240915e-01
1.094970703125000000e-01 2.076721191406250000e-02 -2.498779296875000000e-01 2.072212662486800315e-04 6.280231375709739439e-01 7.781946387214810912e-01
1.106567382812500000e-01 2.076721191406250000e-02 -2.498779296875000000e-01 -1.620163698474620662e-02 6.177259704723996325e-01 7.862265146654280334e-01
1.118164062500000000e-01 2.076721191406250000e-02 -2.498779296875000000e-01 -2.671784431570701016e-02 6.065038561969692266e-01 7.946315052987311667e-01
1.129760742187500000e-01 2.076721191406250000e-02 -2.498779296875000000e-01 -3.078226914492553090e-02 5.945882608894426102e-01 8.034408826533272485e-01
1.141967773437500000e-01 2.076721191406250000e-02 -2.498779296875000000e-01 -2.794185211390340373e-02 5.821765098367313040e-01 8.125821584890766669e-01
1.153564453125000000e-01 2.076721191406250000e-02 -2.498779296875000000e-01 -1.793817593103763999e-02 5.692613175527627689e-01 8.219609322725500711e-01
1.165161132812500000e-01 2.076721191406250000e-02 -2.498779296875000000e-01 -1.202294523858227215e-03 5.555040667772482843e-01 8.315129501588154337e-01
1.176757812500000000e-01 2.076721191406250000e-02 -2.498779296875000000e-01 7.745947942005297973e-03 5.558014826118716778e-01 8.312789617312139612e-01
1.188964843750000000e-01 2.076721191406250000e-02 -2.498779296875000000e-01 2.254780192217418003e-02 5.700040005816566779e-01 8.213324758886532129e-01
1.200561523437500000e-01 2.076721191406250000e-02 -2.498779296875000000e-01 2.867778578984005872e-02 5.823171929986290518e-01 8.124557042327843481e-01
1.212158203125000000e-01 2.076721191406250000e-02 -2.498779296875000000e-01 2.658603203774845616e-02 5.933325651928242905e-01 8.045182720002018728e-01
1.223754882812500000e-01 2.076721191406250000e-02 -2.498779296875000000e-01 1.564474068414048805e-02 6.172467664350650418e-01 7.866140549306134266e-01
1.235961914062500000e-01 2.076721191406250000e-02 -2.498779296875000000e-01 -1.730143792082501283e-02 6.382697058336908036e-01 7.696183748201738117e-01
1.247558593750000000e-01 2.076721191406250000e-02 -2.498779296875000000e-01 -4.286227670102397969e-02 6.565459604556401763e-01 7.530672128338783411e-01
1.258544921875000000e-01 2.076721191406250000e-02 -2.498779296875000000e-01 -8.268596651619269933e-02 6.755906183378916907e-01 7.326256529463788247e-01
1.270751953125000000e-01 2.076721191406250000e-02 -2.498779296875000000e-01 -1.149826012014835419e-01 6.847726286751207869e-01 7.196286878927951047e-01
1.281738281250000000e-01 2.076721191406250000e-02 -2.498779296875000000e-01 -1.314868497683521487e-01 6.821700578048065511e-01 7.192740927995262545e-01
1.289062500000000000e-01 2.067565917968750000e-02 -2.489013671875000000e-01 -1.157524409221581813e-01 6.759945456592981738e-01 7.277587145884557573e-01
1.300048828125000000e-01 2.067565917968750000e-02 -2.489013671875000000e-01 -9.502639226526617133e-02 6.605078056296417310e-01 7.447814602118953964e-01
1.312255859375000000e-01 2.067565917968750000e-02 -2.489013671875000000e-01 -5.041647696850243970e-02 6.404820837427089852e-01 7.663164354590613625e-01
1.324462890625000000e-01 2.067565917968750000e-02 -2.489013671875000000e-01 1.466359196642541692e-04 6.229597823630526054e-01 7.822538514165878754e-01
1.335449218750000000e-01 2.067565917968750000e-02 -2.489013671875000000e-01 -1.955570461044407521e-04 6.229540665930285437e-01 7.822583925229887880e-01
1.347656250000000000e-01 2.067565917968750000e-02 -2.489013671875000000e-01 1.733007644405985608e-04 6.229603777141030641e-01 7.822533718464542707e-01
1.358642578125000000e-01 2.067565917968750000e-02 -2.489013671875000000e-01 -7.027434812203748856e-04 6.220935738431612183e-01 7.829425850818454435e-01
1.370849609375000000e-01 2.067565917968750000e-02 -2.489013671875000000e-01 5.138151841707554179e-02 6.510063629102993410e-01 7.573312716476584550e-01
1.381835937500000000e-01 2.067565917968750000e-02 -2.489013671875000000e-01 9.030269602190985068e-02 6.654557450077793757e-01 7.409548397354024374e-01
1.394042968750000000e-01 2.067565917968750000e-02 -2.489013671875000000e-01 1.037578670864153507e-01 6.768810641469665823e-01 7.287429793946202938e-01
1.411132812500000000e-01 2.076721191406250000e-02 -2.498779296875000000e-01 1.032038246996399150e-01 6.783316521428234269e-01 7.274717453403627410e-01
1.423339843750000000e-01 2.076721191406250000e-02 -2.498779296875000000e-01 8.783627109144409584e-02 6.680779190392007738e-01 7.388888167870735213e-01
1.435546875000000000e-01 2.076721191406250000e-02 -2.498779296875000000e-01 4.902234995691594210e-02 6.553926988521151520e-01 7.536957074947703283e-01
1.446533203125000000e-01 2.076721191406250000e-02 -2.498779296875000000e-01 2.387373335340472113e-04 6.283388013407152917e-01 7.779397751331388333e-01
1.458740234375000000e-01 2.076721191406250000e-02 -2.498779296875000000e-01 -4.782873981167695687e-03 -6.461040000092286295e-01 -7.632343973436699347e-01
1.469726562500000000e-01 2.076721191406250000e-02 -2.498779296875000000e-01 -4.782873981167695687e-03 -6.461040000092286295e-01 -7.632343973436699347e-01
1.481933593750000000e-01 2.076721191406250000e-02 -2.498779296875000000e-01 -1.356435962047417010e-02 -6.594265410392305959e-01 -7.516466225036353421e-01
-1.555175781250000000e-01 1.927185058593750000e-02 -2.458496093750000000e-01 -8.778231196278812876e-02 -6.965880453974453435e-01 -7.120810071303923516e-01
-1.544189453125000000e-01 1.927185058593750000e-02 -2.458496093750000000e-01 -1.021146895396409238e-01 -6.980813581749732988e-01 -7.086995185188200708e-01
-1.538085937500000000e-01 1.934814453125000000e-02 -2.469482421875000000e-01 7.951542895038136993e-02 7.005676992242110268e-01 7.091418725209588381e-01
-1.527099609375000000e-01 1.934814453125000000e-02 -2.469482421875000000e-01 8.794078911487100692e-02 6.970434804218974545e-01 7.116156294033891827e-01
-1.514892578125000000e-01 1.934814453125000000e-02 -2.469482421875000000e-01 8.123798150423568176e-02 6.768090208250336914e-01 7.316624492831216298e-01
-1.503906250000000000e-01 1.934814453125000000e-02 -2.469482421875000000e-01 5.211308732594292087e-02 6.542788260039411607e-01 7.544557269795644228e-01
-1.491699218750000000e-01 1.934814453125000000e-02 -2.469482421875000000e-01 1.951477605449819866e-02 6.414644359932757389e-01 7.669045252646325972e-01
-1.480712890625000000e-01 1.934814453125000000e-02 -2.469482421875000000e-01 -1.741268573163882430e-04 6.330011029019506630e-01 7.741508725079055964e-01
-1.468505859375000000e-01 1.934814453125000000e-02 -2.469482421875000000e-01 2.418962772749154737e-04 6.330024437014375449e-01 7.741497579630181036e-01
-1.457519531250000000e-01 1.934814453125000000e-02 -2.469482421875000000e-01 2.503173970481927272e-04 6.330017870134888591e-01 7.741502922423594280e-01
-1.445312500000000000e-01 1.934814453125000000e-02 -2.469482421875000000e-01 2.453193440109740315e-04 6.330009702473935462e-01 7.741509616891772971e-01
-1.434326171875000000e-01 1.934814453125000000e-02 -2.469482421875000000e-01 2.531561509805782323e-04 6.330002814288132607e-01 7.741515223927460942e-01
-1.422119140625000000e-01 1.934814453125000000e-02 -2.469482421875000000e-01 2.277012097600651327e-04 6.330005582995109625e-01 7.741513039094272131e-01
-1.411132812500000000e-01 1.934814453125000000e-02 -2.469482421875000000e-01 -1.546779919347760542e-04 6.330041031314339595e-01 7.741484234263399378e-01
-1.398925781250000000e-01 1.934814453125000000e-02 -2.469482421875000000e-01 2.413030477717325911e-04 6.329992303984398605e-01 7.741523855726480940e-01
-1.387939453125000000e-01 1.934814453125000000e-02 -2.469482421875000000e-01 -1.663472565112411605e-04 6.330046291625730515e-01 7.741479908824563383e-01
-1.375732421875000000e-01 1.934814453125000000e-02 -2.469482421875000000e-01 2.262297814543674616e-04 6.329986113868548703e-01 7.741528962694639304e-01
-1.364746093750000000e-01 1.934814453125000000e-02 -2.469482421875000000e-01 -1.880805431678837737e-04 6.330046322443284579e-01 7.741479833874993499e-01
-1.352539062500000000e-01 1.934814453125000000e-02 -2.469482421875000000e-01 -7.591583311386524259e-04 6.331599455756605765e-01 7.740206114808925175e-01
-1.341552734375000000e-01 1.934814453125000000e-02 -2.469482421875000000e-01 -1.806605448538694007e-04 6.330060250871067939e-01 7.741468462541125639e-01
-1.329345703125000000e-01 1.934814453125000000e-02 -2.469482421875000000e-01 -7.324788883117482182e-04 6.331629145506628698e-01 7.740182085147531144e-01
-1.318359375000000000e-01 1.934814453125000000e-02 -2.469482421875000000e-01 -1.476618228550707239e-04 6.330071294443040397e-01 7.741459502372071144e-01
-1.306152343750000000e-01 1.934814453125000000e-02 -2.469482421875000000e-01 -7.240589490696796963e-04 6.331670715808377370e-01 7.740148158817016233e-01
-1.295166015625000000e-01 1.934814453125000000e-02 -2.469482421875000000e-01 -1.414753145947316500e-04 6.330080140048551796e-01 7.741452281002346725e-01
-1.282958984375000000e-01 1.934814453125000000e-02 -2.469482421875000000e-01 -7.245070548211048978e-04 6.331694935995428875e-01 7.740128341729392014e-01
-1.271972656250000000e-01 1.934814453125000000e-02 -2.469482421875000000e-01 -7.455791860221277264e-04 6.331709536446349373e-01 7.740116197916029339e-01
-1.259765625000000000e-01 1.934814453125000000e-02 -2.469482421875000000e-01 -7.524326688081124431e-04 6.331721184354923704e-01 7.740106603148240172e-01
-1.248779296875000000e-01 1.934814453125000000e-02 -2.469482421875000000e-01 -7.429720439762060868e-04 6.331742178767701956e-01 7.740089520210229335e-01
-1.237182617187500000e-01 1.934814453125000000e-02 -2.469482421875000000e-01 -1.988449013737502661e-04 6.330094951150163629e-01 7.741440044041787427e-01
-1.225585937500000000e-01 1.934814453125000000e-02 -2.469482421875000000e-01 -7.469838517342566918e-04 6.331783134312283234e-01 7.740055977933948395e-01
-1.213989257812500000e-01 1.934814453125000000e-02 -2.469482421875000000e-01 -2.033214935914348285e-04 6.330106407161013582e-01 7.741430664938885320e-01
-1.202392578125000000e-01 1.934814453125000000e-02 -2.469482421875000000e-01 -7.658190713140776299e-04 6.331821904401223611e-01 7.740024077679594772e-01
-1.190795898437500000e-01 1.934814453125000000e-02 -2.469482421875000000e-01 -1.997692850826005972e-04 6.330112855847167541e-01 7.741425401142976170e-01
-1.179199218750000000e-01 1.934814453125000000e-02 -2.469482421875000000e-01 -2.790480215876414531e-04 6.520858203724860802e-01 7.581451081431201944e-01
-1.167602539062500000e-01 1.934814453125000000e-02 -2.469482421875000000e-01 -1.623202833368708742e-02 6.844386380536499059e-01 7.288897529773891160e-01
-1.156005859375000000e-01 1.934814453125000000e-02 -2.469482421875000000e-01 -2.521632204637458408e-02 7.025930159106719142e-01 7.111449859880895064e-01
-1.144409179687500000e-01 1.934814453125000000e-02 -2.469482421875000000e-01 8.392221176510331060e-02 -7.145516453005823498e-01 -6.945307830259822568e-01
-8.843994140625000000e-02 1.683044433593750000e-02 -2.147216796875000000e-01 -2.619319383154617223e-02 5.752684499442518584e-01 -8.175451835193210393e-01
-8.789062500000000000e-02 1.690673828125000000e-02 -2.158203125000000000e-01 -7.006811985217253902e-02 6.127218863061845155e-01 -7.871863493619365437e-01
-8.685302734375000000e-02 1.690673828125000000e-02 -2.158203125000000000e-01 -5.550066530279125498e-02 6.240897189537438772e-01 -7.793790469644309438e-01
-8.581542968750000000e-02 1.690673828125000000e-02 -2.158203125000000000e-01 4.192367020024469204e-02 -6.715597846185118458e-01 7.397633821432898493e-01
-8.483886718750000000e-02 1.690673828125000000e-02 -2.158203125000000000e-01 6.988360288378686266e-03 -6.966891287767469354e-01 7.173391252850893629e-01
-8.380126953125000000e-02 1.690673828125000000e-02 -2.158203125000000000e-01 -1.998591628411663934e-02 -7.113698833898964846e-01 7.025335950373684524e-01
-8.282470703125000000e-02 1.690673828125000000e-02 -2.158203125000000000e-01 -3.813725319858778150e-04 -7.358628934641341379e-01 6.771304575763699152e-01
-8.178710937500000000e-02 1.690673828125000000e-02 -2.158203125000000000e-01 -3.843832105759563259e-04 -7.358641487814548965e-01 6.771290916713683661e-01
-8.074951171875000000e-02 1.690673828125000000e-02 -2.158203125000000000e-01 -9.342117892884684634e-04 -7.360321326512343498e-01 6.769459557108000736e-01
-7.977294921875000000e-02 1.690673828125000000e-02 -2.158203125000000000e-01 -3.759360930524395061e-04 -7.358657748529168208e-01 6.771273292905628516e-01
-7.873535156250000000e-02 1.690673828125000000e-02 -2.158203125000000000e-01 -9.072880502739920187e-04 -7.360354507978913441e-01 6.769423845477092749e-01
-7.775878906250000000e-02 1.690673828125000000e-02 -2.158203125000000000e-01 -3.651515752530007527e-04 -7.358672045092207181e-01 6.771257815148613579e-01
-7.672119140625000000e-02 1.690673828125000000e-02 -2.158203125000000000e-01 -9.145857126695566006e-04 -7.360404989517429497e-01 6.769368858585295134e-01
-7.568359375000000000e-02 1.690673828125000000e-02 -2.158203125000000000e-01 -9.156219647335191256e-04 -7.360408540066304406e-01 6.769364984026257082e-01
-7.470703125000000000e-02 1.690673828125000000e-02 -2.158203125000000000e-01 -5.629647772938543892e-04 -7.365939944096988601e-01 6.763349543460135394e-01
-7.366943359375000000e-02 1.690673828125000000e-02 -2.158203125000000000e-01 4.732104346096811798e-02 -7.653248857543006878e-01 6.419022807958636445e-01
-7.269287109375000000e-02 1.690673828125000000e-02 -2.158203125000000000e-01 1.029117154365710579e-01 -7.791110315009850407e-01 6.183810956193382946e-01
-7.165527343750000000e-02 1.690673828125000000e-02 -2.158203125000000000e-01 1.450712206864866738e-01 -7.887218021208869390e-01 5.973878637767202626e-01
-7.098388671875000000e-02 1.699829101562500000e-02 -2.167968750000000000e-01 2.171540721950096231e-01 -7.868474721491219848e-01 5.776808500388955769e-01
-6.994628906250000000e-02 1.699829101562500000e-02 -2.167968750000000000e-01 2.871257182857360202e-01 -7.820004694977517046e-01 5.532034775778222890e-01
-6.890869140625000000e-02 1.699829101562500000e-02 -2.167968750000000000e-01 3.423564021800193924e-01 -7.615914554694733773e-01 5.502458985237799194e-01
-6.823730468750000000e-02 1.707458496093750000e-02 -2.177734375000000000e-01 3.843652040096264266e-01 -7.437475204253966021e-01 5.469031137301307854e-01
-6.719970703125000000e-02 1.707458496093750000e-02 -2.177734375000000000e-01 4.446059246809351828e-01 -7.170981746216127384e-01 5.367455446419295839e-01
-6.646728515625000000e-02 1.715087890625000000e-02 -2.187500000000000000e-01 5.675627279768949984e-01 -6.779621472381899272e-01 4.671615103190843721e-01
-6.573486328125000000e-02 1.722717285156250000e-02 -2.198486328125000000e-01 7.353572445218653497e-01 -5.880495672622593206e-01 3.368195798522989337e-01
-6.561279296875000000e-02 1.745605468750000000e-02 -2.227783203125000000e-01 9.042839142270371333e-01 -3.755813760741226748e-01 2.030005724536188549e-01
-6.457519531250000000e-02 1.745605468750000000e-02 -2.227783203125000000e-01 9.315118774420408920e-01 -3.019846755782321646e-01 2.027088500789101522e-01
-6.439208984375000000e-02 1.770019531250000000e-02 -2.258300781250000000e-01 9.142233873222666007e-01 -1.175682342470356495e-01 3.877799741722553484e-01
-6.359863281250000000e-02 1.777648925781250000e-02 -2.268066406250000000e-01 9.137119704659967256e-01 -1.246680367614900892e-01 3.867664872208824156e-01
-6.335449218750000000e-02 1.802062988281250000e-02 -2.298583984375000000e-01 9.005565973964639870e-01 -2.301113822578032889e-02 4.341293613696927678e-01
-6.256103515625000000e-02 1.809692382812500000e-02 -2.308349609375000000e-01 8.376102622056550429e-01 2.109773439055485089e-01 5.038825349288604816e-01
-6.173706054687500000e-02 1.817321777343750000e-02 -2.318115234375000000e-01 7.047089306373212070e-01 3.515520707157951952e-01 6.162762892205410070e-01
-6.091308593750000000e-02 1.824951171875000000e-02 -2.327880859375000000e-01 4.864585414609765568e-01 4.729529782716700437e-01 7.346247802678701477e-01
-6.008911132812500000e-02 1.832580566406250000e-02 -2.338867187500000000e-01 3.711306451044447119e-01 4.607361131590183012e-01 8.062160245836590411e-01
-5.899047851562500000e-02 1.832580566406250000e-02 -2.338867187500000000e-01 2.401619925092550734e-01 4.616913017022261090e-01 8.539106272242362738e-01
-5.789184570312500000e-02 1.832580566406250000e-02 -2.338867187500000000e-01 1.259920715123266366e-01 4.424154850647212256e-01 8.879158386305427975e-01
-5.679321289062500000e-02 1.832580566406250000e-02 -2.338867187500000000e-01 1.096039827486192386e-01 4.202428960228458688e-01 9.007679364342249251e-01
-5.569458007812500000e-02 1.832580566406250000e-02 -2.338867187500000000e-01 8.195544103057132712e-02 4.335293641656843833e-01 8.974049231487321032e-01
-5.459594726562500000e-02 1.832580566406250000e-02 -2.338867187500000000e-01 5.064361136293758781e-02 4.232428227084439887e-01 9.045997665564081691e-01
-5.374145507812500000e-02 1.840209960937500000e-02 -2.348632812500000000e-01 7.890150011893121151e-02 4.249241603972382930e-01 9.017837940380634132e-01
-5.261230468750000000e-02 1.840209960937500000e-02 -2.348632812500000000e-01 9.190169443445746211e-02 4.194217967337235398e-01 9.031275851089538564e-01
-5.151367187500000000e-02 1.840209960937500000e-02 -2.348632812500000000e-01 1.035105701269503908e-01 4.256650050188923173e-01 8.989409687928680004e-01
-5.041503906250000000e-02 1.840209960937500000e-02 -2.348632812500000000e-01 7.984115035172788255e-02 4.312139452178196386e-01 8.987101446852573394e-01
-4.931640625000000000e-02 1.840209960937500000e-02 -2.348632812500000000e-01 2.972463935824662395e-02 4.236190040127564838e-01 9.053526303348670146e-01
-4.821777343750000000e-02 1.840209960937500000e-02 -2.348632812500000000e-01 3.984213820323830903e-03 4.265705665066156782e-01 9.044455084915060672e-01
-4.711914062500000000e-02 1.840209960937500000e-02 -2.348632812500000000e-01 -1.706705635069210095e-02 4.165685044478303345e-01 9.089441108724014562e-01
-4.602050781250000000e-02 1.840209960937500000e-02 -2.348632812500000000e-01 -7.169724643164281097e-02 4.380964148617104148e-01 8.960641919747918127e-01
-4.489135742187500000e-02 1.840209960937500000e-02 -2.348632812500000000e-01 -1.153832997512808378e-01 4.374552735350544785e-01 8.918069173284520756e-01
-4.379272460937500000e-02 1.840209960937500000e-02 -2.348632812500000000e-01 1.558446737616847322e-01 -4.245912334778890185e-01 -8.918714717456986962e-01
-4.251098632812500000e-02 1.832580566406250000e-02 -2.338867187500000000e-01 1.616829075119232129e-01 -4.354585380891582425e-01 -8.855701547724743605e-01
-4.141235351562500000e-02 1.832580566406250000e-02 -2.338867187500000000e-01 1.965390317349964000e-01 -4.164442890842903755e-01 -8.876635416044473814e-01
-3.155517578125000000e-02 1.715087890625000000e-02 -2.187500000000000000e-01 -2.561202339562659303e-01 -8.300282540950751908e-01 4.954346810247223787e-01
-3.053283691406250000e-02 1.715087890625000000e-02 -2.187500000000000000e-01 -2.148875738862017770e-01 -8.287994701654012308e-01 5.166379475443632074e-01
-2.937316894531250000e-02 1.707458496093750000e-02 -2.177734375000000000e-01 -1.719248906152213985e-01 -8.266865059688512929e-01 5.357529774401226241e-01
-2.821350097656250000e-02 1.699829101562500000e-02 -2.167968750000000000e-01 -1.530408575379705594e-01 -8.130596420423378268e-01 5.617050065701996164e-01
-2.719116210937500000e-02 1.699829101562500000e-02 -2.167968750000000000e-01 -1.205818412906542181e-01 -7.645699589361779624e-01 6.331609569795714210e-01
-2.618408203125000000e-02 1.699829101562500000e-02 -2.167968750000000000e-01 -6.838618833032181210e-02 -7.527226029585923905e-01 6.547763070246900297e-01
-2.516174316406250000e-02 1.699829101562500000e-02 -2.167968750000000000e-01 5.862597585625976089e-04 -7.309626595670111193e-01 6.824172086181717889e-01
-2.413940429687500000e-02 1.699829101562500000e-02 -2.167968750000000000e-01 1.115775688075512206e-03 -7.285083570082936388e-01 6.850360054870768822e-01
-2.311706542968750000e-02 1.699829101562500000e-02 -2.167968750000000000e-01 1.108908618110878265e-03 -7.285056552828582666e-01 6.850388898030316254e-01
-2.210998535156250000e-02 1.699829101562500000e-02 -2.167968750000000000e-01 1.104354780362269695e-03 -7.285030047852649737e-01 6.850417158241965954e-01
-2.108764648437500000e-02 1.699829101562500000e-02 -2.167968750000000000e-01 1.099138195986437737e-03 -7.285003718681664076e-01 6.850445241611449188e-01
-2.006530761718750000e-02 1.699829101562500000e-02 -2.167968750000000000e-01 1.102966771526874652e-03 -7.284974413515492575e-01 6.850476344084014402e-01
-1.905822753906250000e-02 1.699829101562500000e-02 -2.167968750000000000e-01 1.102759572853828857e-03 -7.284946456315748442e-01 6.850506077710248887e-01
-1.803588867187500000e-02 1.699829101562500000e-02 -2.167968750000000000e-01 1.104690901149382731e-03 -7.284918368008264089e-01 6.850535916062122643e-01
-1.701354980468750000e-02 1.699829101562500000e-02 -2.167968750000000000e-01 1.111692216790795230e-03 -7.284894129985001188e-01 6.850561577633734744e-01
-1.599121093750000000e-02 1.699829101562500000e-02 -2.167968750000000000e-01 1.107154006663370761e-03 -7.284868720148396370e-01 6.850588671873680813e-01
-1.498413085937500000e-02 1.699829101562500000e-02 -2.167968750000000000e-01 1.107080359653342351e-03 -7.284842491728994451e-01 6.850616564077092185e-01
-1.396179199218750000e-02 1.699829101562500000e-02 -2.167968750000000000e-01 1.106081951545983145e-03 -7.284818694319886712e-01 6.850641885922744700e-01
-1.294708251953125000e-02 1.699829101562500000e-02 -2.167968750000000000e-01 1.105204875156989884e-03 -7.284794180025572219e-01 6.850667967934509495e-01
-1.192474365234375000e-02 1.699829101562500000e-02 -2.167968750000000000e-01 1.097495382883467100e-03 -7.284768201524137732e-01 6.850695716527719359e-01
-1.091003417968750000e-02 1.699829101562500000e-02 -2.167968750000000000e-01 1.099265641719048871e-03 -7.284741976177154799e-01 6.850723575070553073e-01
-9.887695312500000000e-03 1.699829101562500000e-02 -2.167968750000000000e-01 1.100238645565956288e-03 -7.284716516934321984e-01 6.850750631529114454e-01
-8.872985839843750000e-03 1.699829101562500000e-02 -2.167968750000000000e-01 1.101091063048385962e-03 -7.284691038492334680e-01 6.850777710125804942e-01
-7.850646972656250000e-03 1.699829101562500000e-02 -2.167968750000000000e-01 1.102130347440383965e-03 -7.284664564555842770e-01 6.850805844043031945e-01
-6.835937500000000000e-03 1.699829101562500000e-02 -2.167968750000000000e-01 1.103854988238148899e-03 -7.284638238434995028e-01 6.850833809511598371e-01
-5.817413330078125000e-03 1.699829101562500000e-02 -2.167968750000000000e-01 1.102326844808746657e-03 -7.284614059762339888e-01 6.850859543726288692e-01
-4.798889160156250000e-03 1.699829101562500000e-02 -2.167968750000000000e-01 1.100006329310820961e-03 -7.284588690347839623e-01 6.850886556575280784e-01
-3.782272338867187500e-03 1.699829101562500000e-02 -2.167968750000000000e-01 1.096645106688650794e-03 -7.284562898572631839e-01 6.850914034907320538e-01
-2.763748168945312500e-03 1.699829101562500000e-02 -2.167968750000000000e-01 1.096571789565101629e-03 -7.284537605550429618e-01 6.850940930000246620e-01
-1.745223999023437500e-03 1.699829101562500000e-02 -2.167968750000000000e-01 1.097125455220173849e-03 -7.284510967272982418e-01 6.850969245242106709e-01
-7.276535034179687500e-04 1.699829101562500000e-02 -2.167968750000000000e-01 4.509674703538289753e-02 -7.442570015470607592e-01 6.663691162223870368e-01
2.903938293457031250e-04 1.699829101562500000e-02 -2.167968750000000000e-01 8.174060508118595469e-02 -7.687911092087508225e-01 6.342544472706044267e-01
1.308441162109375000e-03 1.699829101562500000e-02 -2.167968750000000000e-01 1.151521643284337953e-01 -7.816164075729468141e-01 6.130381476411060904e-01
2.336502075195312500e-03 1.707458496093750000e-02 -2.177734375000000000e-01 1.342835199154676640e-01 -7.840701326174910335e-01 6.059719163594152747e-01
3.360748291015625000e-03 1.707458496093750000e-02 -2.177734375000000000e-01 1.166239257583051026e-01 -7.930735904739496522e-01 5.978571234278967639e-01
4.383087158203125000e-03 1.707458496093750000e-02 -2.177734375000000000e-01 5.428722388762696749e-02 -8.122939632505085106e-01 5.807162944066199817e-01
5.405426025390625000e-03 1.707458496093750000e-02 -2.177734375000000000e-01 -2.496214288982187210e-03 -8.150380314817126104e-01 5.794020850433990732e-01
6.427764892578125000e-03 1.707458496093750000e-02 -2.177734375000000000e-01 -2.114900440331118209e-02 -8.142919735962053096e-01 5.800700831361204068e-01
7.450103759765625000e-03 1.707458496093750000e-02 -2.177734375000000000e-01 -3.988909497598486925e-02 -8.129393958959181266e-01 5.809805493322274250e-01
8.476257324218750000e-03 1.707458496093750000e-02 -2.177734375000000000e-01 -1.480543359785030030e-02 -8.146888596284738160e-01 5.797092901905543938e-01
9.498596191406250000e-03 1.707458496093750000e-02 -2.177734375000000000e-01 1.002841971655927221e-02 -8.150983325905134524e-01 5.792358233104658582e-01
1.052093505859375000e-02 1.707458496093750000e-02 -2.177734375000000000e-01 4.800944885025909548e-02 -8.034254772471721706e-01 5.934665915881431886e-01
1.154327392578125000e-02 1.707458496093750000e-02 -2.177734375000000000e-01 5.415337715900996052e-02 -7.852494641044789336e-01 6.168068505341867125e-01
1.256561279296875000e-02 1.707458496093750000e-02 -2.177734375000000000e-01 4.625579537121956436e-02 -7.641787522989111903e-01 6.433437929516808707e-01
1.358795166015625000e-02 1.707458496093750000e-02 -2.177734375000000000e-01 6.625495140958398421e-02 -7.480768037148896044e-01 6.602964312772167110e-01
