-1.006469726562500000e-01 9.750366210937500000e-03 -2.388916015625000000e-01 8.875619530411126001e-02 6.477310874751392999e-01 7.566814231322267492e-01
-9.948730468750000000e-02 9.750366210937500000e-03 -2.388916015625000000e-01 2.047687611884524417e-02 6.475211522431529865e-01 7.617723117455196258e-01
-9.838867187500000000e-02 9.750366210937500000e-03 -2.388916015625000000e-01 1.159104453865249847e-03 6.520121536281601182e-01 7.582076285543647431e-01
-9.729003906250000000e-02 9.750366210937500000e-03 -2.388916015625000000e-01 1.146480949425820366e-03 6.520091408511734521e-01 7.582102385407013534e-01
-9.613037109375000000e-02 9.750366210937500000e-03 -2.388916015625000000e-01 1.694526018304897980e-03 6.526641494835330182e-01 7.576454557116472088e-01
-9.503173828125000000e-02 9.750366210937500000e-03 -2.388916015625000000e-01 6.432760941294943940e-03 6.694587391024540146e-01 7.428213891818306047e-01
-9.393310546875000000e-02 9.750366210937500000e-03 -2.388916015625000000e-01 -5.615540956047723872e-04 6.696292819553706366e-01 7.426953005135635832e-01
-9.277343750000000000e-02 9.750366210937500000e-03 -2.388916015625000000e-01 -8.494233731159707770e-03 6.700177824852846520e-01 7.422964496391063483e-01
-9.167480468750000000e-02 9.750366210937500000e-03 -2.388916015625000000e-01 6.139760931242879216e-04 6.525547941786739026e-01 7.577412906974158036e-01
-9.051513671875000000e-02 9.750366210937500000e-03 -2.388916015625000000e-01 1.131621651333554555e-03 6.519941092377378178e-01 7.582231867674102954e-01
-8.941650390625000000e-02 9.750366210937500000e-03 -2.388916015625000000e-01 1.123729667392941870e-03 6.519936612917298646e-01 7.582235836921979999e-01
-8.831787109375000000e-02 9.750366210937500000e-03 -2.388916015625000000e-01 1.669639825610102525e-03 6.526384968723478730e-01 7.576676083237656734e-01
-8.715820312500000000e-02 9.750366210937500000e-03 -2.388916015625000000e-01 1.133012523281955609e-03 6.519874690928043615e-01 7.582288944827819677e-01
-8.605957031250000000e-02 9.750366210937500000e-03 -2.388916015625000000e-01 1.667787318835583588e-03 6.526298999203899998e-01 7.576750175473392357e-01
-8.489990234375000000e-02 9.750366210937500000e-03 -2.388916015625000000e-01 1.138305792147772987e-03 6.519814743456152639e-01 7.582340412893906478e-01
-8.380126953125000000e-02 9.750366210937500000e-03 -2.388916015625000000e-01 1.698808423063643798e-03 6.526228063688171988e-01 7.576810586633606626e-01
-8.270263671875000000e-02 9.750366210937500000e-03 -2.388916015625000000e-01 -4.298423548299159375e-02 6.482053912604489598e-01 7.602513572765462468e-01
-8.154296875000000000e-02 9.750366210937500000e-03 -2.388916015625000000e-01 -4.107028361016355766e-02 6.591011894946878780e-01 7.509319901368353145e-01
-8.044433593750000000e-02 9.750366210937500000e-03 -2.388916015625000000e-01 -2.258639746073588805e-02 6.609026944161758843e-01 7.501316438887140059e-01
-7.897949218750000000e-02 9.712219238281250000e-03 -2.379150390625000000e-01 -1.321671509352058535e-03 6.554130750964449748e-01 7.552694579930020469e-01
-7.818603515625000000e-02 9.750366210937500000e-03 -2.388916015625000000e-01 1.518321950011660912e-02 6.592114107702710113e-01 7.518043533765152997e-01
-7.708740234375000000e-02 9.750366210937500000e-03 -2.388916015625000000e-01 3.578284514928938703e-02 6.596160410055678103e-01 7.507504688251369629e-01
-7.592773437500000000e-02 9.750366210937500000e-03 -2.388916015625000000e-01 5.841204104300777578e-02 6.586942183440489540e-01 7.501399603949334693e-01
-7.482910156250000000e-02 9.750366210937500000e-03 -2.388916015625000000e-01 1.660167607417397133e-03 6.525929528952375547e-01 7.577068573498524362e-01
-7.373046875000000000e-02 9.750366210937500000e-03 -2.388916015625000000e-01 1.665089678218466653e-03 6.525881245171187839e-01 7.577110050775248684e-01
-7.257080078125000000e-02 9.750366210937500000e-03 -2.388916015625000000e-01 -5.069515421252026449e-05 6.509945295515838781e-01 7.590824197173278165e-01
-7.147216796875000000e-02 9.750366210937500000e-03 -2.388916015625000000e-01 5.792604337772671447e-02 6.587627539609678395e-01 7.501174624632885868e-01
-7.031250000000000000e-02 9.750366210937500000e-03 -2.388916015625000000e-01 1.262207197546979798e-01 6.771006064854989681e-01 7.249848954299498160e-01
-6.921386718750000000e-02 9.750366210937500000e-03 -2.388916015625000000e-01 -1.375285626966039620e-01 -6.737346493946969606e-01 -7.260630252585597022e-01
-6.835937500000000000e-02 9.788513183593750000e-03 -2.398681640625000000e-01 -2.192320202417506469e-01 -6.786765977896717095e-01 -7.009532059369985024e-01
-5.316162109375000000e-02 8.605957031250000000e-03 -2.108154296875000000e-01 -3.148357163741437592e-01 -2.657146778241858964e-01 -9.111938222376008145e-01
-5.218505859375000000e-02 8.605957031250000000e-03 -2.108154296875000000e-01 -2.982442809514690985e-01 -2.815692545321890616e-01 -9.120137629344904351e-01
-5.117797851562500000e-02 8.605957031250000000e-03 -2.108154296875000000e-01 2.962747646811804692e-01 2.495003892886169805e-01 9.219386202768272698e-01
-5.020141601562500000e-02 8.605957031250000000e-03 -2.108154296875000000e-01 2.908221248952000404e-01 2.604089333879994195e-01 9.206571995499546190e-01
-4.943847656250000000e-02 8.644104003906250000e-03 -2.117919921875000000e-01 3.257192739174189500e-01 2.303299559137632069e-01 9.169814970911209784e-01
-4.843139648437500000e-02 8.644104003906250000e-03 -2.117919921875000000e-01 3.687672760741821931e-01 2.158424236341399682e-01 9.041143424681241658e-01
-4.745483398437500000e-02 8.644104003906250000e-03 -2.117919921875000000e-01 4.198806786779879507e-01 1.841911128825068356e-01 8.886922130906830253e-01
-4.666137695312500000e-02 8.682250976562500000e-03 -2.127685546875000000e-01 4.093108519319875738e-01 1.431360712530669321e-01 9.010974928369003267e-01
-4.568481445312500000e-02 8.682250976562500000e-03 -2.127685546875000000e-01 4.358175584867934882e-01 1.257085602771218502e-01 8.912128890381149082e-01
-4.489135742187500000e-02 8.728027343750000000e-03 -2.137451171875000000e-01 4.186976998615398737e-01 8.404562320737053727e-02 9.042281622192158697e-01
-4.388427734375000000e-02 8.728027343750000000e-03 -2.137451171875000000e-01 4.069155252812601264e-01 4.998623703399313750e-02 9.120971063391538625e-01
-4.309082031250000000e-02 8.766174316406250000e-03 -2.147216796875000000e-01 4.285867869026255272e-01 5.822435472835954529e-02 9.016225876767671732e-01
-4.208374023437500000e-02 8.766174316406250000e-03 -2.147216796875000000e-01 4.231482894342813994e-01 6.366865951601356766e-02 9.038206829588906199e-01
-4.107666015625000000e-02 8.766174316406250000e-03 -2.147216796875000000e-01 3.639039183073987105e-01 1.443870295937589761e-02 9.313245739791112809e-01
-4.025268554687500000e-02 8.804321289062500000e-03 -2.158203125000000000e-01 2.344387832270722338e-01 -4.328547499927646452e-02 9.711667336627097802e-01
-3.921508789062500000e-02 8.804321289062500000e-03 -2.158203125000000000e-01 7.752489622281989734e-02 -6.933837582934508637e-02 9.945763319640124056e-01
-3.820800781250000000e-02 8.804321289062500000e-03 -2.158203125000000000e-01 4.220379505946814797e-02 -6.409737671413703874e-02 9.970508342010172553e-01
-3.720092773437500000e-02 8.804321289062500000e-03 -2.158203125000000000e-01 -1.000529683497454192e-01 -6.793774748647382622e-02 9.926599951599081040e-01
-3.619384765625000000e-02 8.804321289062500000e-03 -2.158203125000000000e-01 -2.115343633751138597e-01 -1.050200109051008801e-01 9.717118968197197004e-01
-3.500366210937500000e-02 8.766174316406250000e-03 -2.147216796875000000e-01 -4.018084637111118407e-01 5.404320733804665600e-02 9.141276115678450553e-01
-3.399658203125000000e-02 8.766174316406250000e-03 -2.147216796875000000e-01 -4.132651764621290136e-01 1.070644132457289205e-01 9.042948110766052539e-01
-3.283691406250000000e-02 8.728027343750000000e-03 -2.137451171875000000e-01 -3.842757223258730370e-01 1.086588593192057556e-01 9.168017351218187283e-01
-3.182983398437500000e-02 8.728027343750000000e-03 -2.137451171875000000e-01 -3.298757038495611638e-01 1.995661302165636086e-01 9.226892107747560745e-01
-3.083801269531250000e-02 8.728027343750000000e-03 -2.137451171875000000e-01 -3.000772068716331953e-01 2.531799810308801302e-01 9.197029776625289532e-01
-2.969360351562500000e-02 8.682250976562500000e-03 -2.127685546875000000e-01 -2.560578862126935418e-01 2.689725641039711346e-01 9.284870051151078441e-01
-2.868652343750000000e-02 8.682250976562500000e-03 -2.127685546875000000e-01 -2.242940965383593832e-01 3.254173264244634711e-01 9.185835410678744317e-01
-2.769470214843750000e-02 8.682250976562500000e-03 -2.127685546875000000e-01 -1.914334359870653313e-01 3.809907454753178047e-01 9.045436923932131945e-01
-2.668762207031250000e-02 8.682250976562500000e-03 -2.127685546875000000e-01 -1.500404139192302033e-01 4.441211751644451033e-01 8.833143585165466050e-01
-2.557373046875000000e-02 8.644104003906250000e-03 -2.117919921875000000e-01 -1.257077900334611920e-01 5.008631425770694312e-01 8.563490316061119767e-01
-2.458190917968750000e-02 8.644104003906250000e-03 -2.117919921875000000e-01 -1.121260074469994233e-01 5.357531134593708222e-01 8.368968633425423187e-01
-2.359008789062500000e-02 8.644104003906250000e-03 -2.117919921875000000e-01 -8.517503865929960949e-02 5.747002204077428233e-01 8.139194489952176204e-01
-2.258300781250000000e-02 8.644104003906250000e-03 -2.117919921875000000e-01 -3.684026994266782762e-02 6.011638907176691804e-01 7.982761245382111737e-01
-2.159118652343750000e-02 8.644104003906250000e-03 -2.117919921875000000e-01 -2.135551601232077781e-02 6.101692800280176243e-01 7.919832016185306411e-01
-2.059936523437500000e-02 8.644104003906250000e-03 -2.117919921875000000e-01 1.650451036698590826e-03 6.180254488327445728e-01 7.861563588793644142e-01
-1.960754394531250000e-02 8.644104003906250000e-03 -2.117919921875000000e-01 1.661610916910376181e-03 6.180799574058722934e-01 7.861134811859645799e-01
-1.861572265625000000e-02 8.644104003906250000e-03 -2.117919921875000000e-01 1.709573969040347136e-03 6.181349073463759947e-01 7.860701709623203470e-01
-1.760864257812500000e-02 8.644104003906250000e-03 -2.117919921875000000e-01 1.813410494679898498e-03 6.181890460771169993e-01 7.860273626615309484e-01
-1.661682128906250000e-02 8.644104003906250000e-03 -2.117919921875000000e-01 1.901859275023264897e-03 6.182435819927600829e-01 7.859842595472631421e-01
-1.562500000000000000e-02 8.644104003906250000e-03 -2.117919921875000000e-01 1.925906582302743149e-03 6.182393885404211531e-01 7.859874994813863536e-01
-1.463317871093750000e-02 8.644104003906250000e-03 -2.117919921875000000e-01 -8.985714779089482712e-03 6.294814303368077013e-01 7.769635678659814193e-01
-1.364135742187500000e-02 8.644104003906250000e-03 -2.117919921875000000e-01 -1.879178533473507481e-02 6.486440573800427156e-01 7.608598791035634523e-01
-1.264190673828125000e-02 8.644104003906250000e-03 -2.117919921875000000e-01 -1.998707105548562860e-02 6.655496054074088175e-01 7.460859466124968309e-01
-1.165008544921875000e-02 8.644104003906250000e-03 -2.117919921875000000e-01 -1.320763266049745574e-02 6.805487316818845667e-01 7.325837714867042827e-01
-1.065826416015625000e-02 8.644104003906250000e-03 -2.117919921875000000e-01 1.546565409926982382e-02 6.828352358396218014e-01 7.304086898710403508e-01
-9.658813476562500000e-03 8.644104003906250000e-03 -2.117919921875000000e-01 4.605821874646532504e-02 6.623855014661931273e-01 7.477460049597606240e-01
-8.666992187500000000e-03 8.644104003906250000e-03 -2.117919921875000000e-01 6.306120055880468089e-02 6.379091214950108890e-01 7.675253987312379289e-01
-7.671356201171875000e-03 8.644104003906250000e-03 -2.117919921875000000e-01 6.492994836229726285e-02 6.105595698694263884e-01 7.893041957613872173e-01
-6.679534912109375000e-03 8.644104003906250000e-03 -2.117919921875000000e-01 7.339371526143467772e-02 5.786613774665936294e-01 8.122588089941457090e-01
-5.683898925781250000e-03 8.644104003906250000e-03 -2.117919921875000000e-01 8.154458111318087232e-02 5.682481251929597521e-01 8.188067839886050692e-01
-4.688262939453125000e-03 8.644104003906250000e-03 -2.117919921875000000e-01 7.952492002263521209e-02 5.699100780996988469e-01 8.178497967082883902e-01
-3.711700439453125000e-03 8.682250976562500000e-03 -2.127685546875000000e-01 8.900910524475739993e-02 5.673628237194596746e-01 8.186432711777510418e-01
-2.712249755859375000e-03 8.682250976562500000e-03 -2.127685546875000000e-01 1.225825726465332444e-01 5.553554065563693909e-01 8.225289571145608658e-01
-1.713752746582031250e-03 8.682250976562500000e-03 -2.127685546875000000e-01 1.637870492484095053e-01 5.458779181058606156e-01 8.217001284062881439e-01
-7.138252258300781250e-04 8.682250976562500000e-03 -2.127685546875000000e-01 2.310159630986209078e-01 5.129437511370602554e-01 8.267528850648530048e-01
2.851486206054687500e-04 8.682250976562500000e-03 -2.127685546875000000e-01 2.536825399377894974e-01 4.822163458182692208e-01 8.385180765829602922e-01
1.290321350097656250e-03 8.728027343750000000e-03 -2.137451171875000000e-01 2.852806769365131556e-01 4.226740143566088959e-01 8.602102143978027637e-01
2.294540405273437500e-03 8.728027343750000000e-03 -2.137451171875000000e-01 3.469914175324236294e-01 3.662164304296248174e-01 8.634132743027657098e-01
3.297805786132812500e-03 8.728027343750000000e-03 -2.137451171875000000e-01 4.743071271649513254e-01 2.625569622318679741e-01 8.402955377152161454e-01
4.322052001953125000e-03 8.766174316406250000e-03 -2.147216796875000000e-01 4.872173223002195797e-01 1.926062816961074398e-01 8.517758514432088868e-01
5.355834960937500000e-03 8.804321289062500000e-03 -2.158203125000000000e-01 5.311034504754097441e-01 9.276926635890793416e-02 8.422131488598025850e-01
6.370544433593750000e-03 8.804321289062500000e-03 -2.158203125000000000e-01 5.462409587257198718e-01 2.502575690485749765e-02 8.372541588441024807e-01
7.415771484375000000e-03 8.850097656250000000e-03 -2.167968750000000000e-01 5.431402511671773459e-01 -5.290632646881506668e-02 8.379735008827132736e-01
8.476257324218750000e-03 8.888244628906250000e-03 -2.177734375000000000e-01 5.667567349627558038e-01 -1.785897583310072090e-01 8.042962772471530242e-01
9.536743164062500000e-03 8.934020996093750000e-03 -2.187500000000000000e-01 5.347574189023603930e-01 -2.858615462245385763e-01 7.951840537378760398e-01
1.056671142578125000e-02 8.934020996093750000e-03 -2.187500000000000000e-01 5.189954637499569756e-01 -3.297117916722684949e-01 7.886278228919074706e-01
1.165008544921875000e-02 8.972167968750000000e-03 -2.198486328125000000e-01 4.760172874717283342e-01 -4.072968915673672585e-01 7.794336303673444766e-01
1.274108886718750000e-02 9.010314941406250000e-03 -2.208251953125000000e-01 4.595316792571755293e-01 -4.464271467569854712e-01 7.678108089871471531e-01
1.377868652343750000e-02 9.010314941406250000e-03 -2.208251953125000000e-01 4.198061203413368525e-01 -4.567874338701634618e-01 7.842882515901065110e-01
1.487731933593750000e-02 9.056091308593750000e-03 -2.218017578125000000e-01 3.895082836867115872e-01 -5.147062065378280593e-01 7.637806084805182083e-01
1.591491699218750000e-02 9.056091308593750000e-03 -2.218017578125000000e-01 3.805553609960970474e-01 -5.205034870053137919e-01 7.643649241248837711e-01
1.704406738281250000e-02 9.094238281250000000e-03 -2.227783203125000000e-01 3.688314930584722373e-01 -5.674574611732043916e-01 7.361761742185898294e-01
1.817321777343750000e-02 9.132385253906250000e-03 -2.237548828125000000e-01 3.712946445092387138e-01 -6.271232398110002659e-01 6.847311363211934232e-01
1.921081542968750000e-02 9.132385253906250000e-03 -2.237548828125000000e-01 3.840172436709057280e-01 -6.245412772207262764e-01 6.800580487068028646e-01
2.035522460937500000e-02 9.178161621093750000e-03 -2.248535156250000000e-01 3.308320641810716944e-01 -6.545578699993441774e-01 6.797824211699010633e-01
2.140808105468750000e-02 9.178161621093750000e-03 -2.248535156250000000e-01 3.295933980249274864e-01 -6.527073865143184772e-01 6.821592626125001502e-01
2.256774902343750000e-02 9.216308593750000000e-03 -2.258300781250000000e-01 3.289392776714316624e-01 -6.471615635329193150e-01 6.877360411456010514e-01
2.363586425781250000e-02 9.216308593750000000e-03 -2.258300781250000000e-01 3.261330343129179576e-01 -6.470921671947240661e-01 6.891363951244224850e-01
2.481079101562500000e-02 9.254455566406250000e-03 -2.268066406250000000e-01 3.779856026997735485e-01 -6.265120986795351676e-01 6.816226774102028818e-01
2.586364746093750000e-02 9.254455566406250000e-03 -2.268066406250000000e-01 3.674998577155183521e-01 -6.236188987767261604e-01 6.899589289715564178e-01
2.705383300781250000e-02 9.300231933593750000e-03 -2.277832031250000000e-01 3.968788440859479794e-01 -5.921452657607344516e-01 7.013210159079439343e-01
2.824401855468750000e-02 9.338378906250000000e-03 -2.288818359375000000e-01 4.254967582913964375e-01 -5.735386627820958649e-01 7.000042221141515864e-01
2.932739257812500000e-02 9.338378906250000000e-03 -2.288818359375000000e-01 4.292143337397948955e-01 -5.738964264227243151e-01 6.974366978095792868e-01
3.053283691406250000e-02 9.384155273437500000e-03 -2.298583984375000000e-01 3.995088060457235302e-01 -5.605998913393575034e-01 7.253416269057092469e-01
3.173828125000000000e-02 9.422302246093750000e-03 -2.308349609375000000e-01 4.248719426333690818e-01 -5.444216625509969987e-01 7.232488407928182594e-01
3.283691406250000000e-02 9.422302246093750000e-03 -2.308349609375000000e-01 5.121019332758944831e-01 -5.211771705910108743e-01 6.827341845768671869e-01
3.421020507812500000e-02 9.506225585937500000e-03 -2.327880859375000000e-01 5.345775521960084431e-01 -4.102095313439962920e-01 7.388876647249315033e-01
3.546142578125000000e-02 9.544372558593750000e-03 -2.338867187500000000e-01 6.151526561207044663e-01 -2.342579222786667636e-01 7.528017239069823008e-01
3.656005859375000000e-02 9.544372558593750000e-03 -2.338867187500000000e-01 6.135767098122998364e-01 -1.706084041096589676e-01 7.709840423919733787e-01
3.814697265625000000e-02 9.666442871093750000e-03 -2.368164062500000000e-01 -5.782402916378042157e-01 -1.867034180208479444e-01 -7.942165944035418645e-01
3.939819335937500000e-02 9.712219238281250000e-03 -2.379150390625000000e-01 -3.733305410813376746e-01 -3.976124046405826729e-01 -8.381698412445111046e-01
4.052734375000000000e-02 9.712219238281250000e-03 -2.379150390625000000e-01 3.254016701810701351e-01 4.427931541963328610e-01 8.354926544501946051e-01
4.180908203125000000e-02 9.750366210937500000e-03 -2.388916015625000000e-01 2.197098593626462537e-01 4.495604747289660974e-01 8.658076906913642068e-01
4.293823242187500000e-02 9.750366210937500000e-03 -2.388916015625000000e-01 1.425306339924682919e-01 5.303676901369898111e-01 8.357003838891419178e-01
4.406738281250000000e-02 9.750366210937500000e-03 -2.388916015625000000e-01 1.278597862645369787e-01 5.526587172364333389e-01 8.235412663121179921e-01
4.519653320312500000e-02 9.750366210937500000e-03 -2.388916015625000000e-01 1.392997044540358331e-01 5.436065673791080632e-01 8.277001221706576928e-01
4.632568359375000000e-02 9.750366210937500000e-03 -2.388916015625000000e-01 1.515990525953641033e-01 5.408774629085263408e-01 8.273265965565375080e-01
4.763793945312500000e-02 9.788513183593750000e-03 -2.398681640625000000e-01 1.518363323288647315e-01 5.242359188177275753e-01 8.379274608259662527e-01
4.876708984375000000e-02 9.788513183593750000e-03 -2.398681640625000000e-01 1.151138512908650574e-01 5.679094179433841205e-01 8.150016529137786847e-01
4.989624023437500000e-02 9.788513183593750000e-03 -2.398681640625000000e-01 7.886846749859310890e-02 5.852593150842778646e-01 8.070014243739012105e-01
5.102539062500000000e-02 9.788513183593750000e-03 -2.398681640625000000e-01 1.983762277783375147e-02 6.167745656521380626e-01 7.868898295740902604e-01
5.212402343750000000e-02 9.788513183593750000e-03 -2.398681640625000000e-01 -7.268909146540151805e-04 6.496891623339584587e-01 7.601996211360522171e-01
5.325317382812500000e-02 9.788513183593750000e-03 -2.398681640625000000e-01 -7.312309304909723898e-04 6.496913747475439038e-01 7.601977261739031322e-01
5.438232421875000000e-02 9.788513183593750000e-03 -2.398681640625000000e-01 -7.428429573170592434e-04 6.496936148807422873e-01 7.601958004142974623e-01
5.551147460937500000e-02 9.788513183593750000e-03 -2.398681640625000000e-01 -7.365703684582561783e-04 6.496949373674637540e-01 7.601946762660071188e-01
5.664062500000000000e-02 9.788513183593750000e-03 -2.398681640625000000e-01 -7.324753278096922697e-04 6.496961868660207085e-01 7.601936123459911432e-01
5.776977539062500000e-02 9.788513183593750000e-03 -2.398681640625000000e-01 -7.317917032411469297e-04 6.496978705538600796e-01 7.601921740446179188e-01
5.889892578125000000e-02 9.788513183593750000e-03 -2.398681640625000000e-01 -7.245022508315678879e-04 6.496988303237543061e-01 7.601913607588776101e-01
6.002807617187500000e-02 9.788513183593750000e-03 -2.398681640625000000e-01 -7.216733810236732657e-04 6.497005328279470415e-01 7.601899083982980310e-01
6.115722656250000000e-02 9.788513183593750000e-03 -2.398681640625000000e-01 -7.225777494686741508e-04 6.497023249175664095e-01 7.601883759161969234e-01
6.228637695312500000e-02 9.788513183593750000e-03 -2.398681640625000000e-01 -7.331832699596644220e-04 6.497048558040833255e-01 7.601862027075261263e-01
6.341552734375000000e-02 9.788513183593750000e-03 -2.398681640625000000e-01 -7.344979435574564225e-04 6.497067026785670052e-01 7.601846229747842854e-01
6.451416015625000000e-02 9.788513183593750000e-03 -2.398681640625000000e-01 -7.282498916141903972e-04 6.497078792800391467e-01 7.601836233789368569e-01
6.567382812500000000e-02 9.788513183593750000e-03 -2.398681640625000000e-01 -2.855816250177264600e-04 6.496403016212950465e-01 7.602416700974289343e-01
6.677246093750000000e-02 9.788513183593750000e-03 -2.398681640625000000e-01 -7.372392450976973394e-04 6.497132211993741358e-01 7.601790490910865783e-01
6.787109375000000000e-02 9.788513183593750000e-03 -2.398681640625000000e-01 -7.457614632312445455e-04 6.497148759836813836e-01 7.601776264567047248e-01
6.903076171875000000e-02 9.788513183593750000e-03 -2.398681640625000000e-01 -2.896484504397488029e-04 6.496422634638145954e-01 7.602399921244520353e-01
7.012939453125000000e-02 9.788513183593750000e-03 -2.398681640625000000e-01 -2.775723607184396200e-04 6.496430611006263067e-01 7.602393150300716940e-01
7.128906250000000000e-02 9.788513183593750000e-03 -2.398681640625000000e-01 -2.738055917906312680e-04 6.496432345620613003e-01 7.602391681689654179e-01
7.238769531250000000e-02 9.788513183593750000e-03 -2.398681640625000000e-01 -2.740101457624326015e-04 6.496443844259055522e-01 7.602381855065728500e-01
7.354736328125000000e-02 9.788513183593750000e-03 -2.398681640625000000e-01 -2.693432717667465981e-04 6.496445402023869331e-01 7.602380540590106817e-01
7.464599609375000000e-02 9.788513183593750000e-03 -2.398681640625000000e-01 -2.826232046239489371e-04 6.496450090347455353e-01 7.602376486075717033e-01
7.580566406250000000e-02 9.788513183593750000e-03 -2.398681640625000000e-01 -2.756026522704443709e-04 6.496460054620345481e-01 7.602367997080911044e-01
7.690429687500000000e-02 9.788513183593750000e-03 -2.398681640625000000e-01 7.539646194436990054e-04 6.502468315177762914e-01 7.597226399406860065e-01
7.806396484375000000e-02 9.788513183593750000e-03 -2.398681640625000000e-01 1.060647942280737444e-03 -6.540915045102991821e-01 -7.564146870291426072e-01
7.916259765625000000e-02 9.788513183593750000e-03 -2.398681640625000000e-01 3.239522573180496010e-03 -6.538478234286296820e-01 -7.566191441479268587e-01
-1.076049804687500000e-01 8.552551269531250000e-03 -2.368164062500000000e-01 -7.889749797982803514e-02 -6.355373495925181748e-01 -7.680282951073093001e-01
-1.064453125000000000e-01 8.552551269531250000e-03 -2.368164062500000000e-01 1.071590645690983640e-01 6.184150130301705461e-01 7.785112757947503237e-01
-1.053466796875000000e-01 8.552551269531250000e-03 -2.368164062500000000e-01 1.217251539302343505e-01 6.145159828213310194e-01 7.794569223233537292e-01
-1.042480468750000000e-01 8.552551269531250000e-03 -2.368164062500000000e-01 1.434177860821823358e-01 6.126529231505629669e-01 7.772308115292109187e-01
-1.031494140625000000e-01 8.552551269531250000e-03 -2.368164062500000000e-01 1.432937866034145469e-01 6.078956743488962422e-01 7.809799868298520353e-01
-1.024780273437500000e-01 8.590698242187500000e-03 -2.379150390625000000e-01 1.300404886454686881e-01 6.169954565067833352e-01 7.761482319523982376e-01
-1.013183593750000000e-01 8.590698242187500000e-03 -2.379150390625000000e-01 9.784849998779451830e-02 6.360026567168578504e-01 7.654582233533305802e-01
-1.002197265625000000e-01 8.590698242187500000e-03 -2.379150390625000000e-01 5.505125799710646611e-02 6.499655101056261985e-01 7.579671461653659792e-01
-9.912109375000000000e-02 8.590698242187500000e-03 -2.379150390625000000e-01 -3.244754863190260782e-04 6.606768642079916543e-01 7.506703509636927230e-01
-9.796142578125000000e-02 8.590698242187500000e-03 -2.379150390625000000e-01 -8.842736124077224969e-04 6.608677642861922052e-01 7.505018428941719888e-01
-9.686279296875000000e-02 8.590698242187500000e-03 -2.379150390625000000e-01 -8.763733701124312150e-04 6.608690892641591041e-01 7.505006854259874682e-01
-9.576416015625000000e-02 8.590698242187500000e-03 -2.379150390625000000e-01 -2.982633320241519876e-04 6.606783654273709061e-01 7.506690405865971139e-01
-9.460449218750000000e-02 8.590698242187500000e-03 -2.379150390625000000e-01 -8.637619762872027727e-04 6.608708545564462300e-01 7.504991455778486920e-01
-9.350585937500000000e-02 8.590698242187500000e-03 -2.379150390625000000e-01 -8.677241333655756920e-04 6.608726460321697749e-01 7.504975634745703061e-01
-9.240722656250000000e-02 8.590698242187500000e-03 -2.379150390625000000e-01 -2.877432153355257501e-04 6.606792341917790967e-01 7.506682800755645202e-01
-9.124755859375000000e-02 8.590698242187500000e-03 -2.379150390625000000e-01 -8.661194196637732887e-04 6.608762502859275578e-01 7.504943914814838912e-01
-9.014892578125000000e-02 8.590698242187500000e-03 -2.379150390625000000e-01 -8.784378984495867879e-04 6.608804561439429737e-01 7.504906735155557618e-01
-8.905029296875000000e-02 8.590698242187500000e-03 -2.379150390625000000e-01 -3.075465090425474933e-04 6.606825793108406231e-01 7.506653280992268140e-01
-8.795166015625000000e-02 8.590698242187500000e-03 -2.379150390625000000e-01 -4.232534365267371290e-04 6.615085362578084771e-01 7.499375156068537329e-01
-8.679199218750000000e-02 8.590698242187500000e-03 -2.379150390625000000e-01 -1.206064556750780208e-03 6.607836856650780577e-01 7.505754233700701050e-01
-8.569335937500000000e-02 8.590698242187500000e-03 -2.379150390625000000e-01 -4.332643804448930275e-04 6.615100875771611211e-01 7.499361414918161994e-01
-8.459472656250000000e-02 8.590698242187500000e-03 -2.379150390625000000e-01 -4.443421346826356721e-04 6.615107609110648657e-01 7.499355410693184787e-01
-8.343505859375000000e-02 8.590698242187500000e-03 -2.379150390625000000e-01 -4.212053379900226511e-04 6.615129981114539204e-01 7.499335810027838445e-01
-8.233642578125000000e-02 8.590698242187500000e-03 -2.379150390625000000e-01 -5.654683143989364114e-02 6.455717932087764455e-01 7.616032534511083529e-01
-8.123779296875000000e-02 8.590698242187500000e-03 -2.379150390625000000e-01 -4.042376756700534479e-02 6.451708596447960353e-01 7.629682043708529982e-01
-8.007812500000000000e-02 8.590698242187500000e-03 -2.379150390625000000e-01 -1.879733589251407835e-02 6.491801755638161309e-01 7.604023670519948208e-01
-7.867431640625000000e-02 8.552551269531250000e-03 -2.368164062500000000e-01 3.110551408173788199e-03 6.403265121927516068e-01 7.680965318584656032e-01
-7.788085937500000000e-02 8.590698242187500000e-03 -2.379150390625000000e-01 1.921279873323718593e-02 6.468970340546484898e-01 7.623352908636298331e-01
-7.672119140625000000e-02 8.590698242187500000e-03 -2.379150390625000000e-01 3.871536276183953212e-02 6.523407815922983577e-01 7.569363416812331380e-01
-7.562255859375000000e-02 8.590698242187500000e-03 -2.379150390625000000e-01 3.868829149853254129e-02 6.581115593110203887e-01 7.519257886268709834e-01
-7.452392578125000000e-02 8.590698242187500000e-03 -2.379150390625000000e-01 -4.294697871534267812e-04 6.615199559533144757e-01 7.499274387773973150e-01
-7.342529296875000000e-02 8.590698242187500000e-03 -2.379150390625000000e-01 1.283175041743023865e-03 6.445804679105208157e-01 7.645353973820089299e-01
-7.226562500000000000e-02 8.590698242187500000e-03 -2.379150390625000000e-01 -4.525642595538103934e-03 6.443195171701179280e-01 7.647430145825220293e-01
-7.116699218750000000e-02 8.590698242187500000e-03 -2.379150390625000000e-01 5.361910575481908248e-02 6.485682320424380753e-01 7.592655924532598632e-01
-7.006835937500000000e-02 8.590698242187500000e-03 -2.379150390625000000e-01 -9.054193441933983122e-02 -6.373765773426168790e-01 -7.652145168295068078e-01
-6.890869140625000000e-02 8.590698242187500000e-03 -2.379150390625000000e-01 -1.395356673547829551e-01 -6.426865208581203914e-01 -7.533152284688924283e-01
-6.811523437500000000e-02 8.628845214843750000e-03 -2.388916015625000000e-01 -2.011521109707473942e-01 -6.625582667487778243e-01 -7.214945401143849635e-01
-5.389404296875000000e-02 7.579803466796875000e-03 -2.097167968750000000e-01 -3.600562825978892434e-01 -3.025060853478847567e-01 -8.825245275284345770e-01
-5.291748046875000000e-02 7.579803466796875000e-03 -2.097167968750000000e-01 -3.289797245938790859e-01 -3.110225418405365705e-01 -8.916486523699718170e-01
-5.218505859375000000e-02 7.614135742187500000e-03 -2.108154296875000000e-01 3.098247910746356193e-01 2.818461323922568651e-01 9.080591150861736516e-01
-5.117797851562500000e-02 7.614135742187500000e-03 -2.108154296875000000e-01 3.027776346903441884e-01 2.695793400449428834e-01 9.141404068042575659e-01
-5.020141601562500000e-02 7.614135742187500000e-03 -2.108154296875000000e-01 3.096263916971993546e-01 2.478040884573579350e-01 9.180003438498214319e-01
-4.919433593750000000e-02 7.614135742187500000e-03 -2.108154296875000000e-01 3.037429919114221777e-01 2.147016653465800839e-01 9.282474830356949314e-01
-4.843139648437500000e-02 7.652282714843750000e-03 -2.117919921875000000e-01 3.873390908683234102e-01 1.783939616536946715e-01 9.045131414914880930e-01
-4.745483398437500000e-02 7.652282714843750000e-03 -2.117919921875000000e-01 4.570982207107406325e-01 1.342143486736089575e-01 8.792313263488705788e-01
-4.666137695312500000e-02 7.686614990234375000e-03 -2.127685546875000000e-01 4.393209581103463268e-01 6.885435610231825654e-02 8.956875422884604809e-01
-4.568481445312500000e-02 7.686614990234375000e-03 -2.127685546875000000e-01 4.428214132158520000e-01 5.991750101400868805e-02 8.946055494293292387e-01
-4.489135742187500000e-02 7.724761962890625000e-03 -2.137451171875000000e-01 4.499083416696433857e-01 9.420950936450746575e-04 8.930742391049614204e-01
-4.388427734375000000e-02 7.724761962890625000e-03 -2.137451171875000000e-01 4.282276916655406995e-01 -3.931965133794417672e-02 9.028150470109949088e-01
-4.309082031250000000e-02 7.759094238281250000e-03 -2.147216796875000000e-01 4.357521590719147242e-01 -6.114748832285950286e-02 8.979872162430657667e-01
-4.208374023437500000e-02 7.759094238281250000e-03 -2.147216796875000000e-01 4.317073519529862624e-01 -1.126500498120587279e-01 8.949518023598148631e-01
-4.125976562500000000e-02 7.797241210937500000e-03 -2.158203125000000000e-01 3.262821029188897604e-01 -1.150601370945195379e-01 9.382436539442285950e-01
-4.025268554687500000e-02 7.797241210937500000e-03 -2.158203125000000000e-01 2.674704108377885525e-01 -2.008424409245486708e-01 9.424021929355501648e-01
-3.921508789062500000e-02 7.797241210937500000e-03 -2.158203125000000000e-01 8.610874789518969952e-02 -1.754162337801294658e-01 9.807213816687783137e-01
-3.820800781250000000e-02 7.797241210937500000e-03 -2.158203125000000000e-01 -1.725120920909076205e-02 -1.728977890827257946e-01 9.847886830742570430e-01
-3.720092773437500000e-02 7.797241210937500000e-03 -2.158203125000000000e-01 -1.114913640481049600e-01 -1.739042449890251529e-01 9.784308812161900404e-01
-3.619384765625000000e-02 7.797241210937500000e-03 -2.158203125000000000e-01 -2.357983042484766423e-01 -1.829805886363338185e-01 9.544198572409543502e-01
-3.518676757812500000e-02 7.797241210937500000e-03 -2.158203125000000000e-01 -3.774319869760859314e-01 -1.489114337372056396e-01 9.139860393406529226e-01
-3.399658203125000000e-02 7.759094238281250000e-03 -2.147216796875000000e-01 -4.226343761628809093e-01 -6.392765044058248969e-02 9.040428306195228414e-01
-3.283691406250000000e-02 7.724761962890625000e-03 -2.137451171875000000e-01 -4.422665979413856752e-01 3.128141718955913808e-02 8.963379548384445838e-01
-3.182983398437500000e-02 7.724761962890625000e-03 -2.137451171875000000e-01 -4.027227517348184738e-01 7.953257510902392302e-02 9.118601618294677191e-01
-3.068542480468750000e-02 7.686614990234375000e-03 -2.127685546875000000e-01 -3.401992812865358706e-01 1.445555643352549602e-01 9.291760531954320612e-01
-2.969360351562500000e-02 7.686614990234375000e-03 -2.127685546875000000e-01 -3.270521092539684371e-01 1.884519944283810089e-01 9.260252499951044936e-01
-2.868652343750000000e-02 7.686614990234375000e-03 -2.127685546875000000e-01 -2.781825976258072708e-01 2.646957344003297297e-01 9.233366723836048395e-01
-2.755737304687500000e-02 7.652282714843750000e-03 -2.117919921875000000e-01 -2.495127079012461890e-01 2.865517629577614689e-01 9.250035112050041253e-01
-2.656555175781250000e-02 7.652282714843750000e-03 -2.117919921875000000e-01 -2.260976008812241034e-01 3.406559080318053434e-01 9.125970782326562336e-01
-2.557373046875000000e-02 7.652282714843750000e-03 -2.117919921875000000e-01 -2.016250188128597409e-01 3.955218790421652919e-01 8.960523394242485562e-01
-2.458190917968750000e-02 7.652282714843750000e-03 -2.117919921875000000e-01 -1.553913546825750058e-01 4.560232739206048214e-01 8.762969248677339174e-01
-2.346801757812500000e-02 7.614135742187500000e-03 -2.108154296875000000e-01 -9.906599835759277717e-02 5.172475516662985440e-01 8.500828772917574661e-01
-2.247619628906250000e-02 7.614135742187500000e-03 -2.108154296875000000e-01 -7.669534983952383533e-02 5.252608249099318671e-01 8.474779579009302788e-01
-2.148437500000000000e-02 7.614135742187500000e-03 -2.108154296875000000e-01 -3.636729421524777239e-02 5.390918257141364967e-01 8.414614806155183979e-01
-2.050781250000000000e-02 7.614135742187500000e-03 -2.108154296875000000e-01 -4.135548438022184671e-03 5.534110861335354015e-01 8.328979931441889972e-01
-1.951599121093750000e-02 7.614135742187500000e-03 -2.108154296875000000e-01 2.071120534274709622e-03 5.681638439911481653e-01 8.229128488733996605e-01
-1.852416992187500000e-02 7.614135742187500000e-03 -2.108154296875000000e-01 2.121338112340654530e-03 5.681909329247100127e-01 8.228940172748618886e-01
-1.753234863281250000e-02 7.614135742187500000e-03 -2.108154296875000000e-01 2.196299113075417600e-03 5.682168907694749027e-01 8.228758966663665131e-01
-1.654052734375000000e-02 7.614135742187500000e-03 -2.108154296875000000e-01 2.283087419885797189e-03 5.682436863712775343e-01 8.228571567477641624e-01
-1.555633544921875000e-02 7.614135742187500000e-03 -2.108154296875000000e-01 -2.476430156427929935e-02 5.813144470257032292e-01 8.133020613813999322e-01
-1.456451416015625000e-02 7.614135742187500000e-03 -2.108154296875000000e-01 -4.229687809605644361e-02 5.925168590096724364e-01 8.044468570966258891e-01
-1.357269287109375000e-02 7.614135742187500000e-03 -2.108154296875000000e-01 -5.059980789904158782e-02 6.029522889827210186e-01 7.961709594371534360e-01
-1.258087158203125000e-02 7.614135742187500000e-03 -2.108154296875000000e-01 -5.010728853635325331e-02 6.131485775020701912e-01 7.883768651747223855e-01
-1.159667968750000000e-02 7.614135742187500000e-03 -2.108154296875000000e-01 -1.574392600997489775e-02 6.148179289310493623e-01 7.885119168780695409e-01
-1.060485839843750000e-02 7.614135742187500000e-03 -2.108154296875000000e-01 1.910155424022562040e-02 6.137314431837685991e-01 7.892837552320308703e-01
-9.613037109375000000e-03 7.614135742187500000e-03 -2.108154296875000000e-01 7.697851399624501545e-02 6.089873158537181252e-01 7.894357209502326223e-01
-8.621215820312500000e-03 7.614135742187500000e-03 -2.108154296875000000e-01 9.295059106352071554e-02 5.973734560812553607e-01 7.965583102262372428e-01
-7.637023925781250000e-03 7.614135742187500000e-03 -2.108154296875000000e-01 9.239855158923578060e-02 5.874521193025272758e-01 8.039667376149218780e-01
-6.679534912109375000e-03 7.652282714843750000e-03 -2.117919921875000000e-01 8.015662299451313533e-02 5.865295067855766931e-01 8.059516446164642911e-01
-5.683898925781250000e-03 7.652282714843750000e-03 -2.117919921875000000e-01 8.219237947672421163e-02 5.826069021492666922e-01 8.085874166248130379e-01
-4.688262939453125000e-03 7.652282714843750000e-03 -2.117919921875000000e-01 7.409705847005727819e-02 5.924735845695863201e-01 8.021749668952217194e-01
-3.694534301757812500e-03 7.652282714843750000e-03 -2.117919921875000000e-01 9.667426487095844012e-02 5.978160552430412666e-01 7.957826654340423023e-01
-2.698898315429687500e-03 7.652282714843750000e-03 -2.117919921875000000e-01 1.411424881919190188e-01 5.902012639631630808e-01 7.948215309384105698e-01
-1.705169677734375000e-03 7.652282714843750000e-03 -2.117919921875000000e-01 2.094764997081730584e-01 5.420648771544034350e-01 8.138091084680689757e-01
-7.104873657226562500e-04 7.652282714843750000e-03 -2.117919921875000000e-01 2.267664639900039136e-01 5.114710311399706111e-01 8.288391611851393392e-01
2.851486206054687500e-04 7.686614990234375000e-03 -2.127685546875000000e-01 2.966611084723304037e-01 4.581857670899218138e-01 8.378890078979362999e-01
1.284599304199218750e-03 7.686614990234375000e-03 -2.127685546875000000e-01 3.794005667744341226e-01 3.835976715301716577e-01 8.419667667597509064e-01
2.294540405273437500e-03 7.724761962890625000e-03 -2.137451171875000000e-01 4.394267737173038757e-01 2.786701588906937421e-01 8.539596319992163176e-01
3.297805786132812500e-03 7.724761962890625000e-03 -2.137451171875000000e-01 5.348524366651661310e-01 2.046129178543319438e-01 8.197965752797889971e-01
4.322052001953125000e-03 7.759094238281250000e-03 -2.147216796875000000e-01 5.509132702396469794e-01 1.191024031460038712e-01 8.260200882779453746e-01
5.355834960937500000e-03 7.797241210937500000e-03 -2.158203125000000000e-01 6.346163632156200940e-01 -2.102409865874310668e-02 7.725412990996453066e-01
6.370544433593750000e-03 7.797241210937500000e-03 -2.158203125000000000e-01 6.067590918470574524e-01 -9.226004405483965998e-02 7.895134506339540614e-01
7.415771484375000000e-03 7.827758789062500000e-03 -2.167968750000000000e-01 6.054637382740328810e-01 -1.897121847291943220e-01 7.729313996730301506e-01
8.476257324218750000e-03 7.865905761718750000e-03 -2.177734375000000000e-01 6.133777328694149933e-01 -2.734046874580964293e-01 7.409572414761308456e-01
9.536743164062500000e-03 7.904052734375000000e-03 -2.187500000000000000e-01 5.829872359722984010e-01 -3.266468680855751372e-01 7.439272183911974645e-01
1.061248779296875000e-02 7.942199707031250000e-03 -2.198486328125000000e-01 5.240003008166753684e-01 -4.035603793095999814e-01 7.500418021654029488e-01
1.170349121093750000e-02 7.972717285156250000e-03 -2.208251953125000000e-01 5.024129808971696809e-01 -4.553848240490395716e-01 7.349869785593793337e-01
1.274108886718750000e-02 7.972717285156250000e-03 -2.208251953125000000e-01 4.700632549358086942e-01 -4.837313182562195668e-01 7.382713241737436372e-01
1.383972167968750000e-02 8.010864257812500000e-03 -2.218017578125000000e-01 4.299633298911626489e-01 -5.072844076201572516e-01 7.468561205040562534e-01
1.494598388671875000e-02 8.049011230468750000e-03 -2.227783203125000000e-01 4.230969454037291078e-01 -5.636906812355448881e-01 7.093953697891193233e-01
1.599121093750000000e-02 8.049011230468750000e-03 -2.227783203125000000e-01 4.122064278094931256e-01 -5.778856207285864022e-01 7.043678515006726037e-01
1.712036132812500000e-02 8.087158203125000000e-03 -2.237548828125000000e-01 4.069261241835988030e-01 -6.151813695678275407e-01 6.752503328348429257e-01
1.824951171875000000e-02 8.117675781250000000e-03 -2.248535156250000000e-01 3.783990631359986367e-01 -6.281919329856663348e-01 6.798448678555503166e-01
1.930236816406250000e-02 8.117675781250000000e-03 -2.248535156250000000e-01 3.778954814797118589e-01 -6.234658919433905266e-01 6.844598502910518301e-01
2.044677734375000000e-02 8.155822753906250000e-03 -2.258300781250000000e-01 3.319443909548272509e-01 -6.363179596851477049e-01 6.963565002897290634e-01
2.151489257812500000e-02 8.155822753906250000e-03 -2.258300781250000000e-01 3.260023068412378766e-01 -6.474950487511796915e-01 6.888197571040618472e-01
2.267456054687500000e-02 8.193969726562500000e-03 -2.268066406250000000e-01 3.254635157538613432e-01 -6.455825971525180895e-01 6.908665646613283418e-01
2.374267578125000000e-02 8.193969726562500000e-03 -2.268066406250000000e-01 3.265008590912586439e-01 -6.439338158600841355e-01 6.919150452219847702e-01
2.491760253906250000e-02 8.232116699218750000e-03 -2.277832031250000000e-01 3.574217211557763618e-01 -6.073925982794177170e-01 7.094532717532708865e-01
2.598571777343750000e-02 8.232116699218750000e-03 -2.277832031250000000e-01 3.676807395114959354e-01 -5.849950137155822683e-01 7.229050475132851039e-01
2.717590332031250000e-02 8.262634277343750000e-03 -2.288818359375000000e-01 3.855163628750939986e-01 -5.478326169349665431e-01 7.424665364699915004e-01
2.836608886718750000e-02 8.300781250000000000e-03 -2.298583984375000000e-01 4.196285215498142818e-01 -5.347017876538867620e-01 7.334888562082281238e-01
2.944946289062500000e-02 8.300781250000000000e-03 -2.298583984375000000e-01 4.147519399807047535e-01 -5.352985640237744036e-01 7.358235356634950097e-01
3.067016601562500000e-02 8.338928222656250000e-03 -2.308349609375000000e-01 4.001404293400926959e-01 -5.181154915860726184e-01 7.559391339162488954e-01
3.189086914062500000e-02 8.377075195312500000e-03 -2.318115234375000000e-01 4.548214862973629646e-01 -4.555274467443496955e-01 7.652660719415381729e-01
3.295898437500000000e-02 8.377075195312500000e-03 -2.318115234375000000e-01 4.945521389784119926e-01 -4.399267137526642335e-01 7.495883325924030949e-01
3.421020507812500000e-02 8.407592773437500000e-03 -2.327880859375000000e-01 5.336955790858413096e-01 -3.286729679741767773e-01 7.791938840797417720e-01
3.546142578125000000e-02 8.445739746093750000e-03 -2.338867187500000000e-01 5.724117326737380163e-01 -2.249745051558287023e-01 7.884993851153841993e-01
3.671264648437500000e-02 8.483886718750000000e-03 -2.348632812500000000e-01 5.816786068835404500e-01 -4.642495777931070905e-02 8.120928035570890158e-01
3.796386718750000000e-02 8.522033691406250000e-03 -2.358398437500000000e-01 5.274957347607869274e-01 2.105568963893116041e-01 8.230516649591799183e-01
3.924560546875000000e-02 8.552551269531250000e-03 -2.368164062500000000e-01 3.532326325566017555e-01 4.144070552150240228e-01 8.387451936584464640e-01
4.052734375000000000e-02 8.590698242187500000e-03 -2.379150390625000000e-01 3.031519172733898038e-01 4.539369543819512520e-01 8.378783661725048848e-01
4.165649414062500000e-02 8.590698242187500000e-03 -2.379150390625000000e-01 1.785503196270455673e-01 5.422331591783449145e-01 8.210377484918409685e-01
4.275512695312500000e-02 8.590698242187500000e-03 -2.379150390625000000e-01 1.180731330626110936e-01 5.644057489627894997e-01 8.170097219657374010e-01
4.388427734375000000e-02 8.590698242187500000e-03 -2.379150390625000000e-01 1.191251086063132847e-01 5.555638915853402526e-01 8.228960875262966157e-01
4.501342773437500000e-02 8.590698242187500000e-03 -2.379150390625000000e-01 1.353011887580984340e-01 5.690377588733588343e-01 8.111039497481383753e-01
4.611206054687500000e-02 8.590698242187500000e-03 -2.379150390625000000e-01 1.388161312353147214e-01 5.747362548713169650e-01 8.064789637959272062e-01
4.742431640625000000e-02 8.628845214843750000e-03 -2.388916015625000000e-01 1.382178026828189132e-01 5.862966351301592827e-01 7.982180746240880032e-01
4.855346679687500000e-02 8.628845214843750000e-03 -2.388916015625000000e-01 1.019589431700477916e-01 5.875256681802919489e-01 8.027564781033835750e-01
4.968261718750000000e-02 8.628845214843750000e-03 -2.388916015625000000e-01 5.897587284750500231e-02 6.091808379263399242e-01 7.908353514640309445e-01
5.081176757812500000e-02 8.628845214843750000e-03 -2.388916015625000000e-01 3.926381112186128064e-03 6.371004313687210763e-01 7.707707985394564032e-01
5.191040039062500000e-02 8.628845214843750000e-03 -2.388916015625000000e-01 -1.827393470381532756e-02 6.514398181540914656e-01 7.584802084654581611e-01
5.303955078125000000e-02 8.628845214843750000e-03 -2.388916015625000000e-01 5.323653090491117443e-04 6.541352481275440889e-01 7.563774148824737864e-01
5.416870117187500000e-02 8.628845214843750000e-03 -2.388916015625000000e-01 -1.015144461482081224e-03 6.526420965416112052e-01 7.576656672329112885e-01
5.529785156250000000e-02 8.628845214843750000e-03 -2.388916015625000000e-01 -1.001765302589663993e-03 6.526438324895301735e-01 7.576641897170913742e-01
5.639648437500000000e-02 8.628845214843750000e-03 -2.388916015625000000e-01 5.383734509248092959e-04 6.541310564309894549e-01 7.563810356999342011e-01
5.752563476562500000e-02 8.628845214843750000e-03 -2.388916015625000000e-01 -1.006538557641015359e-03 6.526486977118651778e-01 7.576599925132238011e-01
5.865478515625000000e-02 8.628845214843750000e-03 -2.388916015625000000e-01 -1.002525069044984344e-03 6.526503531782479328e-01 7.576585718117325730e-01
5.978393554687500000e-02 8.628845214843750000e-03 -2.388916015625000000e-01 -1.007330031844565037e-03 6.526524235359031367e-01 7.576567820186916880e-01
6.088256835937500000e-02 8.628845214843750000e-03 -2.388916015625000000e-01 5.290281025589142327e-04 6.541274276506551244e-01 7.563841805090874004e-01
6.201171875000000000e-02 8.628845214843750000e-03 -2.388916015625000000e-01 5.375263592003965080e-04 6.541255223083316528e-01 7.563858222694721523e-01
6.311035156250000000e-02 8.628845214843750000e-03 -2.388916015625000000e-01 5.274641526768876834e-04 6.541248469351689243e-01 7.563864134181743637e-01
6.427001953125000000e-02 8.628845214843750000e-03 -2.388916015625000000e-01 -1.579278059340766824e-03 6.541370112850569685e-01 7.563744286713190990e-01
6.536865234375000000e-02 8.628845214843750000e-03 -2.388916015625000000e-01 5.335657148816588119e-04 6.541206649054941424e-01 7.563900257481070977e-01
6.646728515625000000e-02 8.628845214843750000e-03 -2.388916015625000000e-01 5.372025016029591173e-04 6.541192888492501911e-01 7.563912131753141033e-01
6.762695312500000000e-02 8.628845214843750000e-03 -2.388916015625000000e-01 -1.579827076299649335e-03 6.541495909595188563e-01 7.563635480335518801e-01
6.872558593750000000e-02 8.628845214843750000e-03 -2.388916015625000000e-01 -1.591636753632202656e-03 6.541529688661976705e-01 7.563606018401434206e-01
6.988525390625000000e-02 8.628845214843750000e-03 -2.388916015625000000e-01 -1.594686529542817689e-03 6.541546584863905389e-01 7.563591341125101009e-01
7.098388671875000000e-02 8.628845214843750000e-03 -2.388916015625000000e-01 -1.590661852707163718e-03 6.541582968827540645e-01 7.563559958209657985e-01
7.208251953125000000e-02 8.628845214843750000e-03 -2.388916015625000000e-01 1.180872809958890830e-04 6.525751162520719850e-01 7.577240287228516058e-01
7.324218750000000000e-02 8.628845214843750000e-03 -2.388916015625000000e-01 -1.577541263512402449e-03 6.541656056925976293e-01 7.563497019847357228e-01
7.434082031250000000e-02 8.628845214843750000e-03 -2.388916015625000000e-01 1.249734685874956126e-04 6.525746546332849007e-01 7.577244251783633588e-01
7.543945312500000000e-02 8.628845214843750000e-03 -2.388916015625000000e-01 1.309260320600462001e-04 6.525744723043925832e-01 7.577245812001993652e-01
