-7.513427734375000000e-02 -2.409362792968750000e-02 -3.352050781250000000e-01 -3.848335436281345029e-02 6.999075550912066124e-01 7.131959378482436440e-01
-7.354736328125000000e-02 -2.409362792968750000e-02 -3.352050781250000000e-01 -2.034134648252148084e-02 6.965511212669535102e-01 7.172187707283098623e-01
-7.196044921875000000e-02 -2.409362792968750000e-02 -3.352050781250000000e-01 -2.472331020237786281e-02 6.911531194038872394e-01 7.222853476784040216e-01
-7.037353515625000000e-02 -2.409362792968750000e-02 -3.352050781250000000e-01 -9.469884336263119373e-03 6.929108261749115094e-01 7.209611003793888750e-01
-6.878662109375000000e-02 -2.409362792968750000e-02 -3.352050781250000000e-01 1.627538828604050899e-02 6.851580993229441363e-01 7.282125312491601887e-01
-6.726074218750000000e-02 -2.409362792968750000e-02 -3.352050781250000000e-01 3.785625027242257856e-02 6.752318259009683077e-01 7.366334811870528521e-01
-6.567382812500000000e-02 -2.409362792968750000e-02 -3.352050781250000000e-01 7.599668284996501100e-02 6.606876046148865145e-01 7.468041197690630240e-01
-6.408691406250000000e-02 -2.409362792968750000e-02 -3.352050781250000000e-01 8.674527299078525766e-02 6.491909515062966873e-01 7.556628653679517971e-01
-6.250000000000000000e-02 -2.409362792968750000e-02 -3.352050781250000000e-01 8.844229285890931047e-02 6.249309060644707703e-01 7.756541261924021491e-01
-6.112670898437500000e-02 -2.416992187500000000e-02 -3.361816406250000000e-01 8.503111324490239542e-02 6.122861372496499754e-01 7.860505046828958342e-01
-5.953979492187500000e-02 -2.416992187500000000e-02 -3.361816406250000000e-01 7.408202564389988753e-02 5.924411510359842703e-01 8.022003091720013579e-01
-5.798339843750000000e-02 -2.416992187500000000e-02 -3.361816406250000000e-01 8.714722811346209408e-02 5.942741961961381936e-01 7.995270729422324640e-01
-5.639648437500000000e-02 -2.416992187500000000e-02 -3.361816406250000000e-01 6.671883515866113001e-02 5.948348459683395761e-01 8.010743430274703814e-01
-5.480957031250000000e-02 -2.416992187500000000e-02 -3.361816406250000000e-01 7.405417345899727166e-02 6.155248377880722099e-01 7.846305840707921142e-01
-5.340576171875000000e-02 -2.424621582031250000e-02 -3.371582031250000000e-01 6.353203357462169909e-02 6.270723367713119112e-01 7.763658706860055991e-01
-5.181884765625000000e-02 -2.424621582031250000e-02 -3.371582031250000000e-01 1.001748157509765175e-02 6.401026831085903090e-01 7.682240592041337246e-01
-5.023193359375000000e-02 -2.424621582031250000e-02 -3.371582031250000000e-01 -4.092452304041422489e-02 6.304951811751524637e-01 7.751135464748544202e-01
-4.849243164062500000e-02 -2.416992187500000000e-02 -3.361816406250000000e-01 -7.431549224144692878e-02 6.059389613348623582e-01 7.920323116826355481e-01
-4.690551757812500000e-02 -2.416992187500000000e-02 -3.361816406250000000e-01 -8.359059016524364449e-02 5.952919212962838325e-01 7.991496365983064010e-01
-4.534912109375000000e-02 -2.416992187500000000e-02 -3.361816406250000000e-01 -9.880072803480167976e-02 5.988045463561820769e-01 7.947776616154734741e-01
-4.376220703125000000e-02 -2.416992187500000000e-02 -3.361816406250000000e-01 -9.068135524078485554e-02 5.942784790376579585e-01 7.991307659978950095e-01
-4.217529296875000000e-02 -2.416992187500000000e-02 -3.361816406250000000e-01 -9.682889621418822035e-02 6.092379435182826430e-01 7.870535515678432903e-01
-4.046630859375000000e-02 -2.409362792968750000e-02 -3.352050781250000000e-01 -9.029196045053865249e-02 6.228386996246688678e-01 7.771224589006868744e-01
-3.890991210937500000e-02 -2.409362792968750000e-02 -3.352050781250000000e-01 -6.403091758004826606e-02 6.441348978756138433e-01 7.622271806572037400e-01
-3.732299804687500000e-02 -2.409362792968750000e-02 -3.352050781250000000e-01 -1.530603681838333188e-02 6.521546229655632576e-01 7.579314434574925263e-01
-3.576660156250000000e-02 -2.409362792968750000e-02 -3.352050781250000000e-01 3.853715616854178766e-02 6.519449059356479115e-01 7.572864235010426937e-01
-3.417968750000000000e-02 -2.409362792968750000e-02 -3.352050781250000000e-01 9.057986483939894917e-02 6.617769900283501094e-01 7.442086424885787643e-01
-3.259277343750000000e-02 -2.409362792968750000e-02 -3.352050781250000000e-01 1.337191883388690328e-01 6.807038258357960281e-01 7.202509841454605155e-01
-3.112792968750000000e-02 -2.416992187500000000e-02 -3.361816406250000000e-01 1.988590082089421451e-01 6.870209162052912655e-01 6.988972424831836339e-01
-2.955627441406250000e-02 -2.416992187500000000e-02 -3.361816406250000000e-01 -2.821356428643816416e-01 -6.956163187401130932e-01 -6.606946466620985392e-01
-2.806091308593750000e-02 -2.424621582031250000e-02 -3.371582031250000000e-01 -3.635325605025697682e-01 -6.941243629715205810e-01 -6.213175083512665342e-01
-2.655029296875000000e-02 -2.430725097656250000e-02 -3.381347656250000000e-01 -4.328289571627321197e-01 -7.018157342713891023e-01 -5.657859745261744067e-01
-2.503967285156250000e-02 -2.438354492187500000e-02 -3.391113281250000000e-01 -4.523367963707577988e-01 -7.167421653709160623e-01 -5.307278879317063325e-01
-2.357482910156250000e-02 -2.453613281250000000e-02 -3.413085937500000000e-01 -5.317535655076645051e-01 -7.180942451217553479e-01 -4.489752784874708191e-01
-2.217102050781250000e-02 -2.474975585937500000e-02 -3.442382812500000000e-01 7.446976415103043756e-01 5.440033629891083411e-01 3.866338885632386591e-01
-2.073669433593750000e-02 -2.496337890625000000e-02 -3.471679687500000000e-01 8.354995933670968933e-01 3.766495771371959345e-01 4.000943957690327180e-01
-1.931762695312500000e-02 -2.525329589843750000e-02 -3.513183593750000000e-01 8.370566026948547123e-01 1.379296325450735938e-01 5.294446716616657556e-01
-1.777648925781250000e-02 -2.539062500000000000e-02 -3.532714843750000000e-01 8.090726125875780106e-01 7.622456780568931389e-02 5.827446463276579891e-01
8.789062500000000000e-03 -2.546691894531250000e-02 -3.542480468750000000e-01 7.081881011091335498e-01 -1.170443783015301942e-01 -6.962544268839141459e-01
1.039886474609375000e-02 -2.532958984375000000e-02 -3.522949218750000000e-01 7.728273821625130102e-01 -1.295797303681477386e-01 -6.212462723087802674e-01
1.198577880859375000e-02 -2.517700195312500000e-02 -3.503417968750000000e-01 7.826623119636197945e-01 -1.382950294787466672e-01 -6.068889439207424408e-01
1.354980468750000000e-02 -2.503967285156250000e-02 -3.481445312500000000e-01 8.424868092352307825e-01 -2.083358170067032278e-01 -4.968019360034633403e-01
1.492309570312500000e-02 -2.459716796875000000e-02 -3.422851562500000000e-01 6.894347635601177915e-01 -5.577414659363458815e-01 -4.621733051247992052e-01
1.647949218750000000e-02 -2.453613281250000000e-02 -3.413085937500000000e-01 6.132876697998915771e-01 -6.093639177983313227e-01 -5.025473607102991513e-01
1.797485351562500000e-02 -2.438354492187500000e-02 -3.391113281250000000e-01 4.232003408828017843e-01 -6.530661933329244828e-01 -6.280175304896541411e-01
1.951599121093750000e-02 -2.430725097656250000e-02 -3.381347656250000000e-01 3.693853779012642446e-01 -6.737079116198663176e-01 -6.400563197200216381e-01
2.110290527343750000e-02 -2.430725097656250000e-02 -3.381347656250000000e-01 -3.176268453774733769e-01 6.620095610343632586e-01 6.788641456098887250e-01
2.262878417968750000e-02 -2.424621582031250000e-02 -3.371582031250000000e-01 -2.173701063642284326e-01 6.591499910930809225e-01 7.199107764863612591e-01
2.420043945312500000e-02 -2.424621582031250000e-02 -3.371582031250000000e-01 -1.172954095430618765e-01 6.716515826856207516e-01 7.315230265521558417e-01
2.571105957031250000e-02 -2.416992187500000000e-02 -3.361816406250000000e-01 -4.841484682177173149e-02 6.589555041539664204e-01 7.506221727023633106e-01
2.729797363281250000e-02 -2.416992187500000000e-02 -3.361816406250000000e-01 3.808578146147482274e-02 6.473084873932306582e-01 7.612760310157916654e-01
2.896118164062500000e-02 -2.424621582031250000e-02 -3.371582031250000000e-01 1.504594739925182723e-01 6.421654447834139745e-01 7.516551657588835811e-01
3.054809570312500000e-02 -2.424621582031250000e-02 -3.371582031250000000e-01 2.715931672688658982e-01 6.333795281672122135e-01 7.246154323443196876e-01
3.222656250000000000e-02 -2.430725097656250000e-02 -3.381347656250000000e-01 3.714608392775540779e-01 6.203858725836113308e-01 6.907519192748481363e-01
3.390502929687500000e-02 -2.438354492187500000e-02 -3.391113281250000000e-01 4.466491363046610763e-01 5.995342176830987801e-01 6.641259450325780467e-01
3.561401367187500000e-02 -2.445983886718750000e-02 -3.400878906250000000e-01 5.115458249602777840e-01 5.765182336088927606e-01 6.371401692580612730e-01
3.741455078125000000e-02 -2.459716796875000000e-02 -3.422851562500000000e-01 6.321273355935927984e-01 5.440590805179732481e-01 5.517379346223011405e-01
3.915405273437500000e-02 -2.467346191406250000e-02 -3.432617187500000000e-01 6.665325491407219083e-01 5.153480757123539702e-01 5.386564042091626092e-01
4.122924804687500000e-02 -2.496337890625000000e-02 -3.471679687500000000e-01 7.924615485487086497e-01 4.149125097147979835e-01 4.470484351319782279e-01
4.336547851562500000e-02 -2.525329589843750000e-02 -3.513183593750000000e-01 8.175593061994369526e-01 3.928106224404820379e-01 4.210660230232503021e-01
4.553222656250000000e-02 -2.554321289062500000e-02 -3.552246093750000000e-01 8.274987229712577053e-01 3.904287645175852361e-01 4.034987525609087800e-01
7.867431640625000000e-02 -2.546691894531250000e-02 -3.542480468750000000e-01 8.713639346671435693e-01 -3.435730305879456381e-01 -3.502605687399142909e-01
8.007812500000000000e-02 -2.539062500000000000e-02 -3.532714843750000000e-01 8.886601207681307235e-01 -3.170216544998909480e-01 -3.313313452339258780e-01
8.105468750000000000e-02 -2.517700195312500000e-02 -3.503417968750000000e-01 8.985595385965805537e-01 -3.351809932243736689e-01 -2.832745265254583700e-01
8.178710937500000000e-02 -2.488708496093750000e-02 -3.461914062500000000e-01 8.453955623771807204e-01 -4.084290517647554131e-01 -3.442267461826765129e-01
8.288574218750000000e-02 -2.474975585937500000e-02 -3.442382812500000000e-01 7.407368509389369304e-01 -4.914919254729591680e-01 -4.579788257724918821e-01
8.404541015625000000e-02 -2.459716796875000000e-02 -3.422851562500000000e-01 5.957344447238062113e-01 -5.815523166945558708e-01 -5.539831895615726642e-01
8.538818359375000000e-02 -2.453613281250000000e-02 -3.413085937500000000e-01 5.158109093288114622e-01 -6.320785249803104744e-01 -5.782869911005258379e-01
8.673095703125000000e-02 -2.445983886718750000e-02 -3.400878906250000000e-01 3.645498757568606529e-01 -6.947367106227964051e-01 -6.200357175184946223e-01
8.831787109375000000e-02 -2.445983886718750000e-02 -3.400878906250000000e-01 2.164844446764658537e-01 -7.108259352974838352e-01 -6.692241589494356546e-01
8.966064453125000000e-02 -2.438354492187500000e-02 -3.391113281250000000e-01 -1.021396916444699127e-01 6.979856268008227671e-01 7.087902003909445359e-01
9.124755859375000000e-02 -2.438354492187500000e-02 -3.391113281250000000e-01 -7.851548932173022660e-03 6.870512649227802360e-01 7.265665231397420154e-01
9.283447265625000000e-02 -2.438354492187500000e-02 -3.391113281250000000e-01 4.801158441630119095e-02 6.774667377647342059e-01 7.339848138648682463e-01
9.472656250000000000e-02 -2.445983886718750000e-02 -3.400878906250000000e-01 9.907635014889730474e-02 6.409354406722310715e-01 7.611738551286861831e-01
9.631347656250000000e-02 -2.445983886718750000e-02 -3.400878906250000000e-01 1.445042711886621034e-01 6.477733961131840745e-01 7.480027693105325559e-01
9.790039062500000000e-02 -2.445983886718750000e-02 -3.400878906250000000e-01 1.506302703219843941e-01 6.504045517357082140e-01 7.445028144635843503e-01
9.979248046875000000e-02 -2.453613281250000000e-02 -3.413085937500000000e-01 1.568090105907350706e-01 6.243242312376885428e-01 7.652647832528450822e-01
1.014404296875000000e-01 -2.453613281250000000e-02 -3.413085937500000000e-01 2.010833800359572432e-01 6.335971789826391198e-01 7.470743530991788006e-01
1.030273437500000000e-01 -2.453613281250000000e-02 -3.413085937500000000e-01 2.372701341268424746e-01 6.424282931534391894e-01 7.286897636219332730e-01
1.049194335937500000e-01 -2.459716796875000000e-02 -3.422851562500000000e-01 2.673664646315823679e-01 6.282372691211851601e-01 7.306388350461288095e-01
1.068725585937500000e-01 -2.467346191406250000e-02 -3.432617187500000000e-01 2.993136895757376181e-01 6.127148602494892904e-01 7.314313469232829323e-01
1.084594726562500000e-01 -2.467346191406250000e-02 -3.432617187500000000e-01 3.133122909394964739e-01 6.175238302844446858e-01 7.214566704779106221e-01
1.104125976562500000e-01 -2.474975585937500000e-02 -3.442382812500000000e-01 3.480701453912089516e-01 5.853736634833489605e-01 7.322464393818693962e-01
1.123657226562500000e-01 -2.482604980468750000e-02 -3.452148437500000000e-01 3.931414046017930319e-01 5.645028438138777194e-01 7.257936175758051833e-01
1.143188476562500000e-01 -2.488708496093750000e-02 -3.461914062500000000e-01 4.621800172336966162e-01 5.442482312864056482e-01 7.001310551685870909e-01
1.165771484375000000e-01 -2.503967285156250000e-02 -3.481445312500000000e-01 5.408056263178615541e-01 5.234161372898484821e-01 6.584563932163769451e-01
1.188964843750000000e-01 -2.517700195312500000e-02 -3.503417968750000000e-01 5.766794690710471682e-01 4.943690642966848681e-01 6.504152659788632329e-01
1.212158203125000000e-01 -2.532958984375000000e-02 -3.522949218750000000e-01 -5.885286394812698774e-01 -4.923439182457282071e-01 -6.412733478609331517e-01
-8.825683593750000000e-02 -2.581787109375000000e-02 -3.371582031250000000e-01 1.539235844498841599e-01 -7.037971458468700314e-01 -6.935251312302231907e-01
-8.612060546875000000e-02 -2.566528320312500000e-02 -3.352050781250000000e-01 1.159491507753868944e-01 -6.884380342827420840e-01 -7.159670854078286073e-01
-8.428955078125000000e-02 -2.558898925781250000e-02 -3.342285156250000000e-01 1.260142357764273968e-01 -7.050762713013674077e-01 -6.978451576312924010e-01
-8.270263671875000000e-02 -2.558898925781250000e-02 -3.342285156250000000e-01 -8.331604946754227192e-02 6.945547657206493364e-01 7.145992676429607782e-01
-8.117675781250000000e-02 -2.558898925781250000e-02 -3.342285156250000000e-01 7.751536922160705279e-02 -7.086883922546427517e-01 -7.012504047898778792e-01
-7.958984375000000000e-02 -2.558898925781250000e-02 -3.342285156250000000e-01 8.225199628590629253e-02 -7.120282357939731188e-01 -6.973165712494615587e-01
-7.800292968750000000e-02 -2.558898925781250000e-02 -3.342285156250000000e-01 6.576361529841785736e-02 -7.110928508701678252e-01 -7.000157886392412987e-01
-7.647705078125000000e-02 -2.558898925781250000e-02 -3.342285156250000000e-01 4.693078710575822321e-02 -7.188713931686240288e-01 -6.935570786211006089e-01
-7.489013671875000000e-02 -2.558898925781250000e-02 -3.342285156250000000e-01 3.094312169156216222e-02 -7.131588394524773777e-01 -7.003192078836455448e-01
-7.330322265625000000e-02 -2.558898925781250000e-02 -3.342285156250000000e-01 1.863574760588519036e-02 -7.080708864553885151e-01 -7.058954091545363019e-01
-7.171630859375000000e-02 -2.558898925781250000e-02 -3.342285156250000000e-01 -1.866500793905958785e-02 6.961847535922106589e-01 7.176199595498913286e-01
-7.019042968750000000e-02 -2.558898925781250000e-02 -3.342285156250000000e-01 -5.013033984330268408e-04 6.907886050182362458e-01 7.230566035047752971e-01
-6.860351562500000000e-02 -2.558898925781250000e-02 -3.342285156250000000e-01 2.506416633251685316e-02 6.864195411458171581e-01 7.267736931804987810e-01
-6.701660156250000000e-02 -2.558898925781250000e-02 -3.342285156250000000e-01 5.823961521198241925e-02 6.719473205160646501e-01 7.383054555339824132e-01
-6.549072265625000000e-02 -2.558898925781250000e-02 -3.342285156250000000e-01 9.223669543943112392e-02 6.714786853951140166e-01 7.352610196892414018e-01
-6.390380859375000000e-02 -2.558898925781250000e-02 -3.342285156250000000e-01 1.194534796238225227e-01 6.626299967609479147e-01 7.393594211196251598e-01
-6.234741210937500000e-02 -2.558898925781250000e-02 -3.342285156250000000e-01 1.169107144876356114e-01 6.474020525824456529e-01 7.531284532867065229e-01
-6.094360351562500000e-02 -2.566528320312500000e-02 -3.352050781250000000e-01 9.987090772647577719e-02 6.199337617943055934e-01 7.782724026826667307e-01
-5.938720703125000000e-02 -2.566528320312500000e-02 -3.352050781250000000e-01 9.812856090338101245e-02 6.054923364082540616e-01 7.897783335125780901e-01
-5.780029296875000000e-02 -2.566528320312500000e-02 -3.352050781250000000e-01 9.027809287525664916e-02 5.978757329199608783e-01 7.964888410594501700e-01
-5.621337890625000000e-02 -2.566528320312500000e-02 -3.352050781250000000e-01 6.360661912431435361e-02 6.031594246033689100e-01 7.950804402799175330e-01
-5.465698242187500000e-02 -2.566528320312500000e-02 -3.352050781250000000e-01 4.428505246758624586e-02 6.032165471789737721e-01 7.963470545794841815e-01
-5.307006835937500000e-02 -2.566528320312500000e-02 -3.352050781250000000e-01 2.562272194593808936e-02 6.169581106748373012e-01 7.865787727828765785e-01
-5.151367187500000000e-02 -2.566528320312500000e-02 -3.352050781250000000e-01 2.119308117586146852e-03 6.290150091780778441e-01 7.773902667012274614e-01
-4.992675781250000000e-02 -2.566528320312500000e-02 -3.352050781250000000e-01 -2.324181096688941045e-02 6.206687804326693758e-01 7.837283223280898659e-01
-4.833984375000000000e-02 -2.566528320312500000e-02 -3.352050781250000000e-01 -5.631363313935802001e-02 6.022502090130543717e-01 7.963186927771933599e-01
-4.678344726562500000e-02 -2.566528320312500000e-02 -3.352050781250000000e-01 -8.584622235126646017e-02 6.102278023534339901e-01 7.875610803886358147e-01
-4.519653320312500000e-02 -2.566528320312500000e-02 -3.352050781250000000e-01 -1.031895260834190947e-01 6.066710841709005431e-01 7.882271990597530253e-01
-4.364013671875000000e-02 -2.566528320312500000e-02 -3.352050781250000000e-01 -9.959130984427609634e-02 6.105965836157148940e-01 7.856547480161488739e-01
-4.193115234375000000e-02 -2.558898925781250000e-02 -3.342285156250000000e-01 -9.770605209043425887e-02 6.151546107477323666e-01 7.823287878256223182e-01
-4.034423828125000000e-02 -2.558898925781250000e-02 -3.342285156250000000e-01 -1.173327726130949933e-01 6.347553780688810487e-01 7.637529904907447431e-01
-3.878784179687500000e-02 -2.558898925781250000e-02 -3.342285156250000000e-01 -7.849651935792355262e-02 6.419462306391864326e-01 7.627210062774144594e-01
-3.723144531250000000e-02 -2.558898925781250000e-02 -3.342285156250000000e-01 -2.797249773242717688e-02 6.525304658263406665e-01 7.572460171827040121e-01
-3.564453125000000000e-02 -2.558898925781250000e-02 -3.342285156250000000e-01 3.416770277817542112e-02 6.676072163822219796e-01 7.437292334722652720e-01
-3.408813476562500000e-02 -2.558898925781250000e-02 -3.342285156250000000e-01 6.325909371883901844e-02 6.830283250128454942e-01 7.276473007522379355e-01
-3.250122070312500000e-02 -2.558898925781250000e-02 -3.342285156250000000e-01 1.145248857267905929e-01 6.987142584836342207e-01 7.061745078526486807e-01
-3.094482421875000000e-02 -2.558898925781250000e-02 -3.342285156250000000e-01 -1.817889521022447996e-01 -7.053325779460405398e-01 -6.851705856073802003e-01
-2.946472167968750000e-02 -2.566528320312500000e-02 -3.352050781250000000e-01 -2.543135153525498127e-01 -7.039480823666868226e-01 -6.631604129027099948e-01
-2.789306640625000000e-02 -2.566528320312500000e-02 -3.352050781250000000e-01 -3.217383939253764535e-01 -7.267554936591874570e-01 -6.068861988136738939e-01
-2.639770507812500000e-02 -2.574157714843750000e-02 -3.361816406250000000e-01 -3.686934800936892964e-01 -7.327619160129035247e-01 -5.719485048302014318e-01
-2.496337890625000000e-02 -2.590942382812500000e-02 -3.381347656250000000e-01 -3.845743616470180815e-01 -7.536224257540062865e-01 -5.330626602609076503e-01
-2.343750000000000000e-02 -2.598571777343750000e-02 -3.391113281250000000e-01 -4.291285272715147370e-01 -7.620877067922345871e-01 -4.848412464280797973e-01
-2.191162109375000000e-02 -2.606201171875000000e-02 -3.400878906250000000e-01 -4.309532456573663683e-01 -8.012940013844266351e-01 -4.149785818602159670e-01
-2.030944824218750000e-02 -2.606201171875000000e-02 -3.400878906250000000e-01 -3.789162942927704059e-01 -8.299512275096889713e-01 -4.093939445993252102e-01
-1.927185058593750000e-02 -2.682495117187500000e-02 -3.503417968750000000e-01 8.385675413679830603e-01 1.729690115616898116e-01 5.166102976165189986e-01
1.036834716796875000e-02 -2.690124511718750000e-02 -3.513183593750000000e-01 7.728273821625130102e-01 -1.295797303681477386e-01 -6.212462723087802674e-01
1.194763183593750000e-02 -2.674865722656250000e-02 -3.491210937500000000e-01 8.338625049630750130e-01 -1.833634252346696969e-01 -5.206257553203794686e-01
1.347351074218750000e-02 -2.651977539062500000e-02 -3.461914062500000000e-01 8.559730323828247389e-01 -3.378850357014065442e-01 -3.913360071376137395e-01
1.483917236328125000e-02 -2.606201171875000000e-02 -3.400878906250000000e-01 4.945877945711109058e-01 -7.429063302856335760e-01 -4.510799240520660947e-01
1.638793945312500000e-02 -2.598571777343750000e-02 -3.391113281250000000e-01 3.846935559690831119e-01 -7.114722644586169986e-01 -5.880629939912812576e-01
1.792907714843750000e-02 -2.590942382812500000e-02 -3.381347656250000000e-01 3.836943458446543942e-01 -7.090059885741659684e-01 -5.916833250420466817e-01
1.945495605468750000e-02 -2.581787109375000000e-02 -3.371582031250000000e-01 3.445780326968276297e-01 -7.031824329651915617e-01 -6.219328302573661205e-01
2.098083496093750000e-02 -2.574157714843750000e-02 -3.361816406250000000e-01 2.687541105114558126e-01 -7.096945602662296793e-01 -6.512333369935228156e-01
2.255249023437500000e-02 -2.574157714843750000e-02 -3.361816406250000000e-01 1.948392666690527686e-01 -7.111585827281677874e-01 -6.754932496893879534e-01
2.406311035156250000e-02 -2.566528320312500000e-02 -3.352050781250000000e-01 1.087532015210596614e-01 -7.107701524254396164e-01 -6.949665686779740170e-01
2.563476562500000000e-02 -2.566528320312500000e-02 -3.352050781250000000e-01 -6.418334958365474042e-05 6.941629989690314417e-01 7.198178427510796284e-01
2.720642089843750000e-02 -2.566528320312500000e-02 -3.352050781250000000e-01 4.352147784467397251e-02 6.783134742242807880e-01 7.334825912399021153e-01
2.879333496093750000e-02 -2.566528320312500000e-02 -3.352050781250000000e-01 1.500341922632345837e-01 6.534714158046714960e-01 7.419331842411125422e-01
3.045654296875000000e-02 -2.574157714843750000e-02 -3.361816406250000000e-01 2.829502533394261388e-01 6.021454142367969053e-01 7.465655056649420640e-01
3.201293945312500000e-02 -2.574157714843750000e-02 -3.361816406250000000e-01 3.232715843963457902e-01 6.178270682634590116e-01 7.167881112594260973e-01
3.369140625000000000e-02 -2.581787109375000000e-02 -3.371582031250000000e-01 4.184332149871369810e-01 5.915367095795425190e-01 6.892009618502692447e-01
3.549194335937500000e-02 -2.598571777343750000e-02 -3.391113281250000000e-01 5.077877765540421695e-01 5.742129669958945248e-01 6.422079433610844434e-01
3.720092773437500000e-02 -2.606201171875000000e-02 -3.400878906250000000e-01 5.308584876547655096e-01 5.625423526188402246e-01 6.338259757969498809e-01
3.903198242187500000e-02 -2.621459960937500000e-02 -3.422851562500000000e-01 7.234001083300112267e-01 4.760723271123261102e-01 5.000474203772901083e-01
4.110717773437500000e-02 -2.651977539062500000e-02 -3.461914062500000000e-01 8.091392065360705210e-01 3.833226741757349010e-01 4.453734072763456120e-01
4.324340820312500000e-02 -2.682495117187500000e-02 -3.503417968750000000e-01 8.212110975771376165e-01 3.712827262289937758e-01 4.333145167428841815e-01
4.525756835937500000e-02 -2.705383300781250000e-02 -3.532714843750000000e-01 8.323231852001042874e-01 3.678144451860565489e-01 4.146693252349710757e-01
7.843017578125000000e-02 -2.705383300781250000e-02 -3.532714843750000000e-01 8.437104980890401951e-01 -4.086429578161487886e-01 -3.480855188622664076e-01
7.965087890625000000e-02 -2.690124511718750000e-02 -3.513183593750000000e-01 8.764654485862274358e-01 -3.737583040962350056e-01 -3.035013139240910762e-01
8.081054687500000000e-02 -2.674865722656250000e-02 -3.491210937500000000e-01 8.772103081546229753e-01 -3.770583161983850351e-01 -2.972021222214101810e-01
8.154296875000000000e-02 -2.644348144531250000e-02 -3.452148437500000000e-01 8.441873456777257978e-01 -4.204566829537582096e-01 -3.325115083077858635e-01
8.264160156250000000e-02 -2.629089355468750000e-02 -3.432617187500000000e-01 7.657047214228460685e-01 -4.957009459447457855e-01 -4.098497917289282699e-01
8.380126953125000000e-02 -2.613830566406250000e-02 -3.413085937500000000e-01 6.174320550062043500e-01 -6.020261830731550301e-01 -5.063024119488110930e-01
8.514404296875000000e-02 -2.606201171875000000e-02 -3.400878906250000000e-01 5.176737199904655196e-01 -6.457411367198052643e-01 -5.612773859501616336e-01
8.648681640625000000e-02 -2.598571777343750000e-02 -3.391113281250000000e-01 4.039205193704339392e-01 -6.899735356191863955e-01 -6.006535891649014136e-01
8.782958984375000000e-02 -2.590942382812500000e-02 -3.381347656250000000e-01 2.252314608377910532e-01 -7.046417422174505729e-01 -6.728675978033350491e-01
8.941650390625000000e-02 -2.590942382812500000e-02 -3.381347656250000000e-01 1.136435997992619185e-01 -7.160826824435342353e-01 -6.887022027909723842e-01
9.100341796875000000e-02 -2.590942382812500000e-02 -3.381347656250000000e-01 3.942244041688728121e-03 -7.133664715435478199e-01 -7.007800910338596312e-01
9.259033203125000000e-02 -2.590942382812500000e-02 -3.381347656250000000e-01 5.169048691993938238e-02 7.028363395856016549e-01 7.094710517842798270e-01
9.417724609375000000e-02 -2.590942382812500000e-02 -3.381347656250000000e-01 9.672693645886160096e-02 6.868605248307968481e-01 7.203238988069501358e-01
9.600830078125000000e-02 -2.598571777343750000e-02 -3.391113281250000000e-01 1.329497751634132197e-01 6.691202790446577620e-01 7.311651041011167917e-01
9.765625000000000000e-02 -2.598571777343750000e-02 -3.391113281250000000e-01 1.546178275445824202e-01 6.757225430178368519e-01 7.207581926436225084e-01
9.924316406250000000e-02 -2.598571777343750000e-02 -3.391113281250000000e-01 1.458379279021121966e-01 6.750070539014690896e-01 7.232542955064127366e-01
1.011352539062500000e-01 -2.606201171875000000e-02 -3.400878906250000000e-01 1.822265827874172961e-01 6.715244003605463918e-01 7.182259061368010400e-01
1.027221679687500000e-01 -2.606201171875000000e-02 -3.400878906250000000e-01 2.159404234861008465e-01 6.679018596471759661e-01 7.122336971700281572e-01
1.043090820312500000e-01 -2.606201171875000000e-02 -3.400878906250000000e-01 2.216136951890302909e-01 6.802319262456602011e-01 6.986929916785928896e-01
1.062011718750000000e-01 -2.613830566406250000e-02 -3.413085937500000000e-01 2.860677905455031311e-01 6.634447570282119289e-01 6.913799777142747294e-01
1.081542968750000000e-01 -2.621459960937500000e-02 -3.422851562500000000e-01 3.146382503510343764e-01 6.409541066392481223e-01 7.001289913996728842e-01
1.100463867187500000e-01 -2.629089355468750000e-02 -3.432617187500000000e-01 3.579022803229582883e-01 6.151628207776228541e-01 7.024817874312081489e-01
1.116943359375000000e-01 -2.629089355468750000e-02 -3.432617187500000000e-01 3.803297013937295690e-01 6.174857570225037451e-01 6.885206301281769914e-01
1.139526367187500000e-01 -2.644348144531250000e-02 -3.452148437500000000e-01 4.300766925607178992e-01 5.632097959938235920e-01 7.055698152646762145e-01
1.159057617187500000e-01 -2.651977539062500000e-02 -3.461914062500000000e-01 5.058784520357435532e-01 5.475732313948012964e-01 6.665212284884671767e-01
1.182250976562500000e-01 -2.667236328125000000e-02 -3.481445312500000000e-01 5.690331977240511430e-01 5.102578644189348367e-01 6.448551245718441294e-01
1.205444335937500000e-01 -2.682495117187500000e-02 -3.503417968750000000e-01 -5.910677313820289491e-01 -5.032589134793676866e-01 -6.303724319182022473e-01
1.229248046875000000e-01 -2.697753906250000000e-02 -3.522949218750000000e-01 -5.885066659777512532e-01 -4.958224041150878225e-01 -6.386078982265140924e-01
-8.563232421875000000e-02 -2.708435058593750000e-02 -3.332519531250000000e-01 1.842533077119541951e-01 -6.454540110342046333e-01 -7.412420915173801861e-01
-8.404541015625000000e-02 -2.708435058593750000e-02 -3.332519531250000000e-01 -1.425251852364705085e-01 6.613708493696474067e-01 7.363933535668155672e-01
-8.245849609375000000e-02 -2.708435058593750000e-02 -3.332519531250000000e-01 -8.532385865465383357e-02 6.653667754961545278e-01 7.416244960963268573e-01
-8.093261718750000000e-02 -2.708435058593750000e-02 -3.332519531250000000e-01 -9.679428049749845553e-02 6.877309409616677582e-01 7.194838567382526584e-01
-7.934570312500000000e-02 -2.708435058593750000e-02 -3.332519531250000000e-01 -8.360906514176752458e-02 6.913512369212712061e-01 7.176649576463572933e-01
-7.757568359375000000e-02 -2.700805664062500000e-02 -3.322753906250000000e-01 -6.101681028564544251e-02 6.834916950328002727e-01 7.274036373869428029e-01
-7.598876953125000000e-02 -2.700805664062500000e-02 -3.322753906250000000e-01 -2.603411792743016290e-02 6.781593269697514526e-01 7.344536417961819996e-01
-7.440185546875000000e-02 -2.700805664062500000e-02 -3.322753906250000000e-01 -1.384245736588645033e-02 6.774818244000121448e-01 7.354092493174836376e-01
-7.287597656250000000e-02 -2.700805664062500000e-02 -3.322753906250000000e-01 1.120453382795049335e-03 6.764233636187524379e-01 7.365121707989014110e-01
-7.128906250000000000e-02 -2.700805664062500000e-02 -3.322753906250000000e-01 -2.375768259819851776e-04 6.823929709550888845e-01 7.309854832678546188e-01
-6.976318359375000000e-02 -2.700805664062500000e-02 -3.322753906250000000e-01 1.988915280352649556e-02 6.780415042450984586e-01 7.347544760815017950e-01
-6.817626953125000000e-02 -2.700805664062500000e-02 -3.322753906250000000e-01 5.103746793904063994e-02 6.743210667725243468e-01 7.366724345142393604e-01
-6.665039062500000000e-02 -2.700805664062500000e-02 -3.322753906250000000e-01 6.968107900522139964e-02 6.696265721555426653e-01 7.394219371183721190e-01
-6.524658203125000000e-02 -2.708435058593750000e-02 -3.332519531250000000e-01 1.003824510905840517e-01 6.643679983469351624e-01 7.406338679033880323e-01
-6.372070312500000000e-02 -2.708435058593750000e-02 -3.332519531250000000e-01 1.352556471872355670e-01 6.627292995094553607e-01 7.365431321217166261e-01
-6.213378906250000000e-02 -2.708435058593750000e-02 -3.332519531250000000e-01 1.531247754581003262e-01 6.555031810290303795e-01 7.395054988312993460e-01
-6.057739257812500000e-02 -2.708435058593750000e-02 -3.332519531250000000e-01 1.311435867680139089e-01 6.507134371671626782e-01 7.479126836334021311e-01
-5.920410156250000000e-02 -2.716064453125000000e-02 -3.342285156250000000e-01 1.070184589556388427e-01 6.285171147362395017e-01 7.703981346851724865e-01
-5.761718750000000000e-02 -2.716064453125000000e-02 -3.342285156250000000e-01 8.899886128292311405e-02 6.246951858398751556e-01 7.757803345527822803e-01
-5.606079101562500000e-02 -2.716064453125000000e-02 -3.342285156250000000e-01 6.984133698823020986e-02 6.206299437932030205e-01 7.809869784541495497e-01
-5.447387695312500000e-02 -2.716064453125000000e-02 -3.342285156250000000e-01 4.420730578747184003e-02 6.086131886085961451e-01 7.922346248218959941e-01
-5.291748046875000000e-02 -2.716064453125000000e-02 -3.342285156250000000e-01 1.231123342718793735e-02 5.966585517560929475e-01 8.024007765124751002e-01
-5.136108398437500000e-02 -2.716064453125000000e-02 -3.342285156250000000e-01 -2.407194459479306686e-03 5.968400420362390824e-01 8.023566349429749334e-01
-4.977416992187500000e-02 -2.716064453125000000e-02 -3.342285156250000000e-01 -4.277020119977701512e-02 6.231771008190385430e-01 7.809103731569381202e-01
-4.821777343750000000e-02 -2.716064453125000000e-02 -3.342285156250000000e-01 -6.880074040732084284e-02 6.246857811136818928e-01 7.778394005151664237e-01
-4.663085937500000000e-02 -2.716064453125000000e-02 -3.342285156250000000e-01 -9.288503261509237219e-02 6.305125882411920513e-01 7.706012242304617343e-01
-4.507446289062500000e-02 -2.716064453125000000e-02 -3.342285156250000000e-01 -8.962002013293400571e-02 6.386459362576457632e-01 7.642641036271216048e-01
-4.336547851562500000e-02 -2.708435058593750000e-02 -3.332519531250000000e-01 -1.158077758932336276e-01 6.538987075284429240e-01 7.476663957510023550e-01
-4.180908203125000000e-02 -2.708435058593750000e-02 -3.332519531250000000e-01 -1.210118740438252266e-01 6.623553914922688524e-01 7.393520553170352949e-01
-4.022216796875000000e-02 -2.708435058593750000e-02 -3.332519531250000000e-01 -1.129056995666728735e-01 6.607560899663232901e-01 7.420604372810724048e-01
-3.866577148437500000e-02 -2.708435058593750000e-02 -3.332519531250000000e-01 -5.781930925277640326e-02 6.651313955956560386e-01 7.444844888045061282e-01
-3.710937500000000000e-02 -2.708435058593750000e-02 -3.332519531250000000e-01 -3.101725333154315561e-02 6.627020428008510988e-01 7.482405578845253702e-01
-3.543090820312500000e-02 -2.700805664062500000e-02 -3.322753906250000000e-01 -1.856202142941960898e-02 6.812041981878053098e-01 7.318581090155131808e-01
-3.396606445312500000e-02 -2.708435058593750000e-02 -3.332519531250000000e-01 4.669026574349482289e-02 6.982810443572905479e-01 7.142993785354242453e-01
-3.240966796875000000e-02 -2.708435058593750000e-02 -3.332519531250000000e-01 9.327713889023714344e-02 7.037229626755189260e-01 7.043247597263933013e-01
-3.085327148437500000e-02 -2.708435058593750000e-02 -3.332519531250000000e-01 -1.693084477569230528e-01 -7.109908996806428849e-01 -6.825149010017665940e-01
-2.928161621093750000e-02 -2.708435058593750000e-02 -3.332519531250000000e-01 -2.032032023727561865e-01 -7.177385261712632136e-01 -6.660029028427426612e-01
-2.780151367187500000e-02 -2.716064453125000000e-02 -3.342285156250000000e-01 -2.848393842716276936e-01 -7.322660112285100942e-01 -6.185895359341665456e-01
-2.630615234375000000e-02 -2.725219726562500000e-02 -3.352050781250000000e-01 -3.285421991951699705e-01 -7.527410922734091292e-01 -5.704742512603316884e-01
-2.473449707031250000e-02 -2.725219726562500000e-02 -3.352050781250000000e-01 -3.141189408682920070e-01 -7.714552049412604084e-01 -5.533409055517406472e-01
-2.330017089843750000e-02 -2.740478515625000000e-02 -3.371582031250000000e-01 -2.984705075742409841e-01 -7.966736421450082428e-01 -5.255725107154884945e-01
-2.178955078125000000e-02 -2.749633789062500000e-02 -3.381347656250000000e-01 -2.870151150190298761e-01 -8.286130021290851744e-01 -4.806483292941293728e-01
-2.014160156250000000e-02 -2.740478515625000000e-02 -3.371582031250000000e-01 2.010322053841247236e-01 8.442071408534032040e-01 4.968906879088371142e-01
-1.927185058593750000e-02 -2.847290039062500000e-02 -3.503417968750000000e-01 8.495294636152490586e-01 2.793954603990391194e-01 4.474794600403421141e-01
1.033782958984375000e-02 -2.847290039062500000e-02 -3.503417968750000000e-01 8.060913129384503772e-01 -1.486769911611367512e-01 -5.728105686039990374e-01
1.191711425781250000e-02 -2.830505371093750000e-02 -3.481445312500000000e-01 8.557028103052620738e-01 -2.175972544765736316e-01 -4.694934880058873050e-01
1.362609863281250000e-02 -2.847290039062500000e-02 -3.503417968750000000e-01 8.441763234441973518e-01 -1.765229971810820253e-01 -5.061679231267479651e-01
1.474761962890625000e-02 -2.749633789062500000e-02 -3.381347656250000000e-01 3.329975169605916552e-01 -7.608622708170695859e-01 -5.569571424671495574e-01
1.628112792968750000e-02 -2.740478515625000000e-02 -3.371582031250000000e-01 3.328675772849968850e-01 -7.540927614648890165e-01 -5.661654202604347041e-01
1.782226562500000000e-02 -2.732849121093750000e-02 -3.361816406250000000e-01 3.259651775121256700e-01 -7.474414954248794762e-01 -5.788591486419719656e-01
1.933288574218750000e-02 -2.725219726562500000e-02 -3.352050781250000000e-01 2.998911140393691332e-01 -7.366252600971215925e-01 -6.061753425429592390e-01
2.084350585937500000e-02 -2.716064453125000000e-02 -3.342285156250000000e-01 2.269035711868253313e-01 -7.400995356628579103e-01 -6.330619611809632508e-01
2.241516113281250000e-02 -2.716064453125000000e-02 -3.342285156250000000e-01 1.552485137787229241e-01 -7.301884821136184200e-01 -6.653740899359604777e-01
2.398681640625000000e-02 -2.716064453125000000e-02 -3.342285156250000000e-01 8.069556664838466176e-02 -7.204216711365857284e-01 -6.888256973139613715e-01
2.555847167968750000e-02 -2.716064453125000000e-02 -3.342285156250000000e-01 -1.477189468495345576e-02 7.069947449887689084e-01 7.070645102716457409e-01
2.713012695312500000e-02 -2.716064453125000000e-02 -3.342285156250000000e-01 8.135808046734142873e-02 6.896730497062806275e-01 7.195359249207142760e-01
2.870178222656250000e-02 -2.716064453125000000e-02 -3.342285156250000000e-01 1.857442717688187195e-01 6.541231176097821454e-01 7.332271220525945488e-01
3.027343750000000000e-02 -2.716064453125000000e-02 -3.342285156250000000e-01 2.597930224585567882e-01 6.437192505652193919e-01 7.198146372043290331e-01
3.192138671875000000e-02 -2.725219726562500000e-02 -3.352050781250000000e-01 3.447498836470301309e-01 6.145555020000773583e-01 7.095555317850690269e-01
3.359985351562500000e-02 -2.732849121093750000e-02 -3.361816406250000000e-01 4.285041040611193286e-01 5.992561798185185307e-01 6.762220521042572319e-01
3.527832031250000000e-02 -2.740478515625000000e-02 -3.371582031250000000e-01 4.892410736797053739e-01 5.682936690820302728e-01 6.615780207247010658e-01
3.707885742187500000e-02 -2.757263183593750000e-02 -3.391113281250000000e-01 5.387934301989858454e-01 5.610751876939270577e-01 6.284077285716933581e-01
3.878784179687500000e-02 -2.764892578125000000e-02 -3.400878906250000000e-01 6.922458255143154604e-01 4.897378651961853957e-01 5.300495641457380058e-01
4.110717773437500000e-02 -2.813720703125000000e-02 -3.461914062500000000e-01 8.334234027088557317e-01 3.347290888802992304e-01 4.397293131854611570e-01
4.312133789062500000e-02 -2.838134765625000000e-02 -3.491210937500000000e-01 8.398576958292113259e-01 3.414014447452358714e-01 4.220001235572257148e-01
4.501342773437500000e-02 -2.854919433593750000e-02 -3.513183593750000000e-01 8.405928952268809651e-01 3.443248822177782942e-01 4.181434681778529727e-01
7.824707031250000000e-02 -2.864074707031250000e-02 -3.522949218750000000e-01 8.215912598646017972e-01 -4.453889311617620361e-01 -3.558321257456663056e-01
7.940673828125000000e-02 -2.847290039062500000e-02 -3.503417968750000000e-01 8.644775046757823267e-01 -4.181588992891028256e-01 -2.789655513766150507e-01
8.038330078125000000e-02 -2.822875976562500000e-02 -3.471679687500000000e-01 8.680059475673166380e-01 -4.115389849616943319e-01 -2.778512890818812808e-01
8.129882812500000000e-02 -2.798461914062500000e-02 -3.442382812500000000e-01 8.455097713335189002e-01 -4.394567731307916225e-01 -3.033001337438091527e-01
8.239746093750000000e-02 -2.781677246093750000e-02 -3.422851562500000000e-01 7.762912573348176304e-01 -4.854284564192289375e-01 -4.021580503781723159e-01
8.355712890625000000e-02 -2.764892578125000000e-02 -3.400878906250000000e-01 6.378519177617157920e-01 -5.944394124964249571e-01 -4.896802179776165720e-01
8.465576171875000000e-02 -2.749633789062500000e-02 -3.381347656250000000e-01 4.940464517319035354e-01 -6.585266061344461352e-01 -5.676802027058579503e-01
8.593750000000000000e-02 -2.740478515625000000e-02 -3.371582031250000000e-01 3.832068222492602816e-01 -6.552554781000293760e-01 -6.509936941334575344e-01
8.752441406250000000e-02 -2.740478515625000000e-02 -3.371582031250000000e-01 2.336918548087706660e-01 -6.907611095081278574e-01 -6.842786030464029778e-01
8.911132812500000000e-02 -2.740478515625000000e-02 -3.371582031250000000e-01 -1.263695648103271008e-01 6.861287025514881677e-01 7.164203630723096072e-01
9.045410156250000000e-02 -2.732849121093750000e-02 -3.361816406250000000e-01 -3.237836416714042626e-02 6.776904728891748331e-01 7.346341024544847942e-01
9.228515625000000000e-02 -2.740478515625000000e-02 -3.371582031250000000e-01 3.532120799319809351e-02 6.852737403015838336e-01 7.274285622100487014e-01
9.387207031250000000e-02 -2.740478515625000000e-02 -3.371582031250000000e-01 8.713781885114084413e-02 6.880040960125508587e-01 7.204563584255596620e-01
9.545898437500000000e-02 -2.740478515625000000e-02 -3.371582031250000000e-01 1.170749307649397442e-01 6.883802544440629223e-01 7.158394274401989055e-01
9.704589843750000000e-02 -2.740478515625000000e-02 -3.371582031250000000e-01 -1.384947031519855043e-01 -7.019624413377921757e-01 -6.986185999169576277e-01
9.893798828125000000e-02 -2.749633789062500000e-02 -3.381347656250000000e-01 -1.531422008028598403e-01 -7.049014176194984271e-01 -6.925759581239288032e-01
1.005249023437500000e-01 -2.749633789062500000e-02 -3.381347656250000000e-01 1.613187831199617839e-01 6.947302410637182790e-01 7.009466045029697501e-01
1.021118164062500000e-01 -2.749633789062500000e-02 -3.381347656250000000e-01 -1.734350072727128267e-01 -7.053217977382117976e-01 -6.873437712583501114e-01
1.040039062500000000e-01 -2.757263183593750000e-02 -3.391113281250000000e-01 -2.240214056688683286e-01 -7.082666676625332114e-01 -6.694570466283514820e-01
1.055908203125000000e-01 -2.757263183593750000e-02 -3.391113281250000000e-01 -2.568610595707394029e-01 -7.023465328082038051e-01 -6.638763016771209724e-01
1.074829101562500000e-01 -2.764892578125000000e-02 -3.400878906250000000e-01 -3.065348467488162032e-01 -6.771018450837241742e-01 -6.690063371246166568e-01
1.094360351562500000e-01 -2.774047851562500000e-02 -3.413085937500000000e-01 3.441282667637449166e-01 6.582509737157946628e-01 6.695381927988791615e-01
1.113891601562500000e-01 -2.781677246093750000e-02 -3.422851562500000000e-01 3.856972617377889545e-01 6.403184092679399253e-01 6.642514260734005971e-01
1.132812500000000000e-01 -2.789306640625000000e-02 -3.432617187500000000e-01 4.329020664887378578e-01 6.080621020801351140e-01 6.654744779806868182e-01
1.152343750000000000e-01 -2.798461914062500000e-02 -3.442382812500000000e-01 4.858441811749297790e-01 5.836789392774650587e-01 6.505953638494478275e-01
1.175537109375000000e-01 -2.813720703125000000e-02 -3.461914062500000000e-01 5.576003936530394833e-01 5.313635649629381286e-01 6.377574482731291905e-01
1.198730468750000000e-01 -2.830505371093750000e-02 -3.481445312500000000e-01 5.858562908931523872e-01 5.175696325958294430e-01 6.236137280685345452e-01
1.225585937500000000e-01 -2.854919433593750000e-02 -3.513183593750000000e-01 -5.870227905248807110e-01 -5.075991885919232116e-01 -6.306721074736092447e-01
-8.691406250000000000e-02 -2.856445312500000000e-02 -3.322753906250000000e-01 2.064762258028958741e-01 -6.112052139586631183e-01 -7.640652816402115910e-01
-8.532714843750000000e-02 -2.856445312500000000e-02 -3.322753906250000000e-01 1.828252476418113226e-01 -6.177747251320642174e-01 -7.648067192518072099e-01
-8.380126953125000000e-02 -2.856445312500000000e-02 -3.322753906250000000e-01 -1.490183952311310012e-01 6.087957217850978875e-01 7.792055486320027535e-01
-8.221435546875000000e-02 -2.856445312500000000e-02 -3.322753906250000000e-01 -1.223436354964609202e-01 6.269886137479623311e-01 7.693616269894915094e-01
-8.044433593750000000e-02 -2.847290039062500000e-02 -3.310546875000000000e-01 -1.038222272705289911e-01 6.448768643068264472e-01 7.572019380630120589e-01
-7.885742187500000000e-02 -2.847290039062500000e-02 -3.310546875000000000e-01 -7.740085685043696095e-02 6.541842132005762922e-01 7.523643549225076388e-01
-7.733154296875000000e-02 -2.847290039062500000e-02 -3.310546875000000000e-01 -4.364672506104429889e-02 6.534867991781604379e-01 7.556784810296826027e-01
-7.574462890625000000e-02 -2.847290039062500000e-02 -3.310546875000000000e-01 -1.838160899324988232e-02 6.428219017783612932e-01 7.657950894624946381e-01
-7.421875000000000000e-02 -2.847290039062500000e-02 -3.310546875000000000e-01 -1.286538720539749311e-02 6.460739727030244683e-01 7.631663669264957539e-01
-7.263183593750000000e-02 -2.847290039062500000e-02 -3.310546875000000000e-01 -2.665781881213088924e-03 6.705014898513255162e-01 7.419033937879745411e-01
-7.110595703125000000e-02 -2.847290039062500000e-02 -3.310546875000000000e-01 7.812627773106435580e-03 6.710164387825157117e-01 7.414013095017495392e-01
-6.951904296875000000e-02 -2.847290039062500000e-02 -3.310546875000000000e-01 3.276907188495289253e-02 6.783164241362026337e-01 7.340388386692314748e-01
-6.799316406250000000e-02 -2.847290039062500000e-02 -3.310546875000000000e-01 5.632516803827946478e-02 6.740116101406193883e-01 7.365703122181271878e-01
-6.640625000000000000e-02 -2.847290039062500000e-02 -3.310546875000000000e-01 7.963246104094541533e-02 6.626039211908356652e-01 7.447245898794339070e-01
-6.488037109375000000e-02 -2.847290039062500000e-02 -3.310546875000000000e-01 9.540725583508785634e-02 6.628135427484723730e-01 7.426814007925854888e-01
-6.347656250000000000e-02 -2.856445312500000000e-02 -3.322753906250000000e-01 1.271211976471557370e-01 6.731164531253327477e-01 7.285289573110490524e-01
-6.195068359375000000e-02 -2.856445312500000000e-02 -3.322753906250000000e-01 1.506899124336975593e-01 6.755599965582977928e-01 7.217418107196488242e-01
-6.039428710937500000e-02 -2.856445312500000000e-02 -3.322753906250000000e-01 1.516850884150761358e-01 6.740075827423945842e-01 7.229836874772933575e-01
-5.883789062500000000e-02 -2.856445312500000000e-02 -3.322753906250000000e-01 1.255052445428615771e-01 6.696058321376825440e-01 7.320358346142885608e-01
-5.746459960937500000e-02 -2.865600585937500000e-02 -3.332519531250000000e-01 9.643627347647266979e-02 6.554491859888771366e-01 7.490570136808608614e-01
-5.587768554687500000e-02 -2.865600585937500000e-02 -3.332519531250000000e-01 8.199088543297110288e-02 6.538156949821484210e-01 7.521984656331915930e-01
-5.432128906250000000e-02 -2.865600585937500000e-02 -3.332519531250000000e-01 5.074828649454575513e-02 6.520174140193928380e-01 7.565037364305156053e-01
-5.276489257812500000e-02 -2.865600585937500000e-02 -3.332519531250000000e-01 1.033467589428688910e-02 6.526212869684838713e-01 7.576137870114032502e-01
-5.117797851562500000e-02 -2.865600585937500000e-02 -3.332519531250000000e-01 -2.302378820345273372e-02 6.508855225180020243e-01 7.588266875599659622e-01
-4.962158203125000000e-02 -2.865600585937500000e-02 -3.332519531250000000e-01 -4.805849939644663005e-02 6.480389764330615199e-01 7.600893800464203487e-01
-4.806518554687500000e-02 -2.865600585937500000e-02 -3.332519531250000000e-01 -7.682697820689025903e-02 6.502576798154146021e-01 7.558191352834827681e-01
-4.650878906250000000e-02 -2.865600585937500000e-02 -3.332519531250000000e-01 -8.959985492391017714e-02 6.538043776522668438e-01 7.513399375518023948e-01
-4.479980468750000000e-02 -2.856445312500000000e-02 -3.322753906250000000e-01 -1.166100809769387292e-01 6.740335058953490499e-01 7.294387718958845745e-01
-4.324340820312500000e-02 -2.856445312500000000e-02 -3.322753906250000000e-01 -1.247140811931748139e-01 6.812705576283155651e-01 7.213299004345696819e-01
-4.168701171875000000e-02 -2.856445312500000000e-02 -3.322753906250000000e-01 -1.290721377636568079e-01 6.770516703845761430e-01 7.245284113701648820e-01
-4.010009765625000000e-02 -2.856445312500000000e-02 -3.322753906250000000e-01 -9.952727639966076068e-02 6.695093040876243240e-01 7.361057077570928309e-01
-3.842163085937500000e-02 -2.847290039062500000e-02 -3.310546875000000000e-01 -7.134196459616987118e-02 6.860564350813650458e-01 7.240420512449589063e-01
-3.689575195312500000e-02 -2.847290039062500000e-02 -3.310546875000000000e-01 -4.808508959105302349e-02 7.033010167318535233e-01 7.092640580368931857e-01
-3.533935546875000000e-02 -2.847290039062500000e-02 -3.310546875000000000e-01 -1.922033555370583624e-02 7.049312969685691543e-01 7.090151234320845042e-01
-3.378295898437500000e-02 -2.847290039062500000e-02 -3.310546875000000000e-01 3.499354028231896341e-02 7.050994323331568614e-01 7.082444794433413460e-01
