-2.851867675781250000e-02 3.210449218750000000e-02 -3.864746093750000000e-01 1.690995260948083279e-01 2.807462784324235017e-01 9.447681606726887615e-01
-2.676391601562500000e-02 3.219604492187500000e-02 -3.874511718750000000e-01 1.722157573879463943e-01 2.609523704841609781e-01 9.498660922709016852e-01
-2.494812011718750000e-02 3.219604492187500000e-02 -3.874511718750000000e-01 1.838171903107396199e-01 2.292199574920407157e-01 9.558605816925460630e-01
-2.313232421875000000e-02 3.219604492187500000e-02 -3.874511718750000000e-01 2.071862331840318427e-01 1.698464899890645696e-01 9.634448788682239417e-01
-2.136230468750000000e-02 3.225708007812500000e-02 -3.884277343750000000e-01 2.239839545735194393e-01 1.482379378705162842e-01 9.632531867943673332e-01
-1.954650878906250000e-02 3.225708007812500000e-02 -3.884277343750000000e-01 2.176202237959867225e-01 1.204008042105461640e-01 9.685788994916409989e-01
-1.776123046875000000e-02 3.234863281250000000e-02 -3.894042968750000000e-01 2.026138729381350145e-01 1.389239038408927873e-01 9.693543043875214593e-01
-1.593017578125000000e-02 3.234863281250000000e-02 -3.894042968750000000e-01 1.833936145778542193e-01 1.182657418115321685e-01 9.758995831774074370e-01
-1.410675048828125000e-02 3.234863281250000000e-02 -3.894042968750000000e-01 1.376002017307551284e-01 1.040584731286998965e-01 9.850066084315267645e-01
-1.231384277343750000e-02 3.244018554687500000e-02 -3.903808593750000000e-01 6.837008963467432199e-02 1.036638568432015767e-01 9.922597117830285196e-01
-1.047515869140625000e-02 3.244018554687500000e-02 -3.903808593750000000e-01 5.249179662941132196e-03 9.532224081925476378e-02 9.954326278146914397e-01
-8.644104003906250000e-03 3.244018554687500000e-02 -3.903808593750000000e-01 -3.367928306034113917e-02 4.074730346968549050e-02 9.986017039603382051e-01
-6.793975830078125000e-03 3.234863281250000000e-02 -3.894042968750000000e-01 -8.915788109665970240e-02 5.898123910455524421e-02 9.942696242328059597e-01
-4.962921142578125000e-03 3.234863281250000000e-02 -3.894042968750000000e-01 -1.390882530199782918e-01 3.499594748452823992e-03 9.902738059286669836e-01
-3.135681152343750000e-03 3.234863281250000000e-02 -3.894042968750000000e-01 -1.521611401041198519e-01 -4.470266109030291563e-02 9.873442457084863344e-01
-1.306533813476562500e-03 3.234863281250000000e-02 -3.894042968750000000e-01 -1.263402670663952287e-01 1.498808467324482625e-03 9.919858317994114660e-01
5.202293395996093750e-04 3.225708007812500000e-02 -3.884277343750000000e-01 -1.392432492057258941e-01 -4.638212099782996339e-02 9.891713786813561837e-01
2.344131469726562500e-03 3.225708007812500000e-02 -3.884277343750000000e-01 -1.367384312655882395e-01 -7.104871844447462059e-02 9.880560110754975645e-01
4.169464111328125000e-03 3.225708007812500000e-02 -3.884277343750000000e-01 -1.428371854677240593e-01 -7.927206026762007030e-02 9.865665101292390160e-01
5.992889404296875000e-03 3.225708007812500000e-02 -3.884277343750000000e-01 -1.223363582865598098e-01 -3.563367732557152362e-02 9.918488072692527302e-01
7.797241210937500000e-03 3.219604492187500000e-02 -3.874511718750000000e-01 -1.508986849420825282e-01 -2.926695474314248632e-02 9.881159002074669795e-01
9.613037109375000000e-03 3.219604492187500000e-02 -3.874511718750000000e-01 -1.550812631713302525e-01 -4.715254589826103904e-02 9.867757796118108438e-01
1.143646240234375000e-02 3.219604492187500000e-02 -3.874511718750000000e-01 -1.397323500787562289e-01 -1.126723815018931645e-02 9.901252040453949466e-01
1.325225830078125000e-02 3.219604492187500000e-02 -3.874511718750000000e-01 -1.016462799535987477e-01 7.117358953004288002e-02 9.922713106429126295e-01
1.503753662109375000e-02 3.210449218750000000e-02 -3.864746093750000000e-01 -8.419288256673794490e-02 9.647356647418391107e-02 9.917683245077222320e-01
1.684570312500000000e-02 3.210449218750000000e-02 -3.864746093750000000e-01 -6.088157736688315502e-02 1.202233859161876278e-01 9.908782826443253144e-01
1.866149902343750000e-02 3.210449218750000000e-02 -3.864746093750000000e-01 -4.823283961193079727e-02 1.926128368748528663e-01 9.800887144814959262e-01
2.047729492187500000e-02 3.210449218750000000e-02 -3.864746093750000000e-01 -2.423215104626003091e-02 2.516688261262217119e-01 9.675100024350761219e-01
2.229309082031250000e-02 3.210449218750000000e-02 -3.864746093750000000e-01 -4.241368199344412032e-02 2.892142481720126335e-01 9.563243164502597260e-01
2.410888671875000000e-02 3.210449218750000000e-02 -3.864746093750000000e-01 -4.802669360847158092e-02 3.238769468553170938e-01 9.448794420436481545e-01
2.592468261718750000e-02 3.210449218750000000e-02 -3.864746093750000000e-01 -3.271735863965511554e-02 3.920206313181814339e-01 9.193744607419431780e-01
2.774047851562500000e-02 3.210449218750000000e-02 -3.864746093750000000e-01 -1.590870191031160466e-02 4.583175947321923571e-01 8.886461025416284576e-01
2.955627441406250000e-02 3.210449218750000000e-02 -3.864746093750000000e-01 1.023851164088344402e-02 4.999207432591918909e-01 8.660106369661729753e-01
3.137207031250000000e-02 3.210449218750000000e-02 -3.864746093750000000e-01 3.202593383471482452e-02 5.508752131304297528e-01 8.339729246927132245e-01
3.317260742187500000e-02 3.210449218750000000e-02 -3.864746093750000000e-01 3.754541874294915760e-02 5.834158010892885882e-01 8.113053337497296846e-01
3.509521484375000000e-02 3.219604492187500000e-02 -3.874511718750000000e-01 4.941573263042185749e-02 6.155440369488335284e-01 7.865517299868659551e-01
3.689575195312500000e-02 3.219604492187500000e-02 -3.874511718750000000e-01 4.923165698316997463e-02 6.410043578700279632e-01 7.659566940384585632e-01
3.872680664062500000e-02 3.219604492187500000e-02 -3.874511718750000000e-01 5.197166477014551755e-02 6.470489954194789117e-01 7.606750578188183898e-01
4.052734375000000000e-02 3.219604492187500000e-02 -3.874511718750000000e-01 4.344880863866580623e-02 6.376505603589609494e-01 7.690994499424530506e-01
4.235839843750000000e-02 3.219604492187500000e-02 -3.874511718750000000e-01 3.470506810113862389e-02 6.278181618134016651e-01 7.775859527700695883e-01
4.418945312500000000e-02 3.219604492187500000e-02 -3.874511718750000000e-01 4.375886060581642145e-02 6.158514095294775892e-01 7.866461742734381923e-01
4.598999023437500000e-02 3.219604492187500000e-02 -3.874511718750000000e-01 6.359084193007165375e-02 5.927150528754357994e-01 8.028979206085252729e-01
4.782104492187500000e-02 3.219604492187500000e-02 -3.874511718750000000e-01 7.470200235798207800e-02 5.569028229320572843e-01 8.272114945127478913e-01
4.977416992187500000e-02 3.225708007812500000e-02 -3.884277343750000000e-01 1.097010103591701813e-01 5.029685821010602131e-01 8.573145827206174463e-01
5.160522460937500000e-02 3.225708007812500000e-02 -3.884277343750000000e-01 1.752071122379321166e-01 4.539317715651947083e-01 8.736408956687687910e-01
5.340576171875000000e-02 3.225708007812500000e-02 -3.884277343750000000e-01 2.091430524240723843e-01 4.078968602350039885e-01 8.887515597922556188e-01
5.538940429687500000e-02 3.234863281250000000e-02 -3.894042968750000000e-01 2.220790560167166250e-01 3.487555749836328545e-01 9.105220710101210591e-01
5.722045898437500000e-02 3.234863281250000000e-02 -3.894042968750000000e-01 2.382832643145539053e-01 3.179455710076696806e-01 9.176773397138054955e-01
5.920410156250000000e-02 3.244018554687500000e-02 -3.903808593750000000e-01 2.260391493427370002e-01 2.944984963777567133e-01 9.285348343469146393e-01
6.103515625000000000e-02 3.244018554687500000e-02 -3.903808593750000000e-01 1.875194691519763146e-01 3.020479001392048501e-01 9.346675958384660365e-01
6.298828125000000000e-02 3.250122070312500000e-02 -3.913574218750000000e-01 1.287435028400150949e-01 3.465038503271833381e-01 9.291717775443462113e-01
6.481933593750000000e-02 3.250122070312500000e-02 -3.913574218750000000e-01 6.334937453087242931e-02 3.883218038831648400e-01 9.193438058612632968e-01
6.671142578125000000e-02 3.250122070312500000e-02 -3.913574218750000000e-01 7.131047524769630608e-02 5.038455624571451796e-01 8.608452040362370994e-01
6.854248046875000000e-02 3.250122070312500000e-02 -3.913574218750000000e-01 8.181636907057804331e-02 5.969388135772938364e-01 7.981040875706877369e-01
7.037353515625000000e-02 3.250122070312500000e-02 -3.913574218750000000e-01 2.883752045621663235e-02 6.704943977210093831e-01 7.413539370898883929e-01
7.257080078125000000e-02 3.268432617187500000e-02 -3.933105468750000000e-01 -1.633663606774435340e-01 -8.047688976700714258e-01 -5.706649222984584435e-01
7.458496093750000000e-02 3.277587890625000000e-02 -3.945312500000000000e-01 -1.698773392086933565e-01 -8.064567040215699922e-01 -5.663649655143231376e-01
7.702636718750000000e-02 3.302001953125000000e-02 -3.974609375000000000e-01 -3.372217801312953345e-01 -8.245133742602851479e-01 -4.543777796844809536e-01
8.050537109375000000e-02 3.369140625000000000e-02 -4.055175781250000000e-01 -4.213512093796676350e-01 -7.951480591851654012e-01 -4.361223708185083536e-01
-9.094238281250000000e-02 3.053283691406250000e-02 -3.894042968750000000e-01 -3.036864401778086586e-01 7.149912648264643567e-01 6.297317184912820665e-01
-8.886718750000000000e-02 3.045654296875000000e-02 -3.884277343750000000e-01 1.852636321903026184e-01 -7.048985594815777578e-01 -6.846863569755520240e-01
-8.679199218750000000e-02 3.036499023437500000e-02 -3.874511718750000000e-01 9.022189036380875993e-02 -7.065078391646800737e-01 -7.019306829723541696e-01
-8.496093750000000000e-02 3.036499023437500000e-02 -3.874511718750000000e-01 -6.856395059240144585e-02 7.006422501393082536e-01 7.102108292605018303e-01
-8.319091796875000000e-02 3.036499023437500000e-02 -3.874511718750000000e-01 5.696192245424593070e-02 6.709159173045058377e-01 7.393423911137314564e-01
-8.135986328125000000e-02 3.036499023437500000e-02 -3.874511718750000000e-01 8.582122072347003749e-02 6.476810551504300628e-01 7.570627245299818009e-01
-7.952880859375000000e-02 3.036499023437500000e-02 -3.874511718750000000e-01 1.892493144277051231e-01 5.661566976358752834e-01 8.022788110817109519e-01
-7.788085937500000000e-02 3.045654296875000000e-02 -3.884277343750000000e-01 2.431028290331926356e-01 4.504451290106725181e-01 8.590693803568003606e-01
-7.611083984375000000e-02 3.045654296875000000e-02 -3.884277343750000000e-01 2.347479647710618011e-01 3.976060348400350386e-01 8.870190720016278840e-01
-7.446289062500000000e-02 3.053283691406250000e-02 -3.894042968750000000e-01 1.792576542943094542e-01 3.795465158184908039e-01 9.076404220322858984e-01
-7.263183593750000000e-02 3.053283691406250000e-02 -3.894042968750000000e-01 1.572524310435557959e-01 3.029826421373903456e-01 9.399325462469835246e-01
-7.080078125000000000e-02 3.053283691406250000e-02 -3.894042968750000000e-01 8.372674159886789313e-02 3.167618465173143716e-01 9.448025007016958021e-01
-6.896972656250000000e-02 3.053283691406250000e-02 -3.894042968750000000e-01 -4.878712637401821234e-02 2.709592184029394613e-01 9.613536905128277077e-01
-6.713867187500000000e-02 3.053283691406250000e-02 -3.894042968750000000e-01 -9.180870149506688283e-02 2.524930212153697062e-01 9.632333240535879693e-01
-6.530761718750000000e-02 3.053283691406250000e-02 -3.894042968750000000e-01 -1.595284856070806334e-01 2.376309421684875411e-01 9.581660595137089231e-01
-6.329345703125000000e-02 3.045654296875000000e-02 -3.884277343750000000e-01 -2.517867637340257536e-01 2.736640629171344097e-01 9.282841193708059047e-01
-6.149291992187500000e-02 3.045654296875000000e-02 -3.884277343750000000e-01 -3.075876924405943624e-01 3.247215889590138183e-01 8.943968364898232659e-01
-5.950927734375000000e-02 3.036499023437500000e-02 -3.874511718750000000e-01 -3.480171080693000851e-01 3.617526706312712559e-01 8.648809731877700191e-01
-5.755615234375000000e-02 3.028869628906250000e-02 -3.864746093750000000e-01 -3.261692508165708326e-01 4.270732858289424949e-01 8.433398059815671033e-01
-5.560302734375000000e-02 3.021240234375000000e-02 -3.854980468750000000e-01 -3.158743195013888894e-01 4.462628116928374356e-01 8.373009716819498349e-01
-5.377197265625000000e-02 3.021240234375000000e-02 -3.854980468750000000e-01 -2.775167609849777950e-01 4.871316755438957480e-01 8.280623032442688825e-01
-5.184936523437500000e-02 3.013610839843750000e-02 -3.842773437500000000e-01 -2.329541899605778454e-01 5.445818197550076345e-01 8.057065141676188480e-01
-5.001831054687500000e-02 3.013610839843750000e-02 -3.842773437500000000e-01 -1.804223232189634818e-01 5.558398996380596868e-01 8.114738389218864034e-01
-4.809570312500000000e-02 3.005981445312500000e-02 -3.833007812500000000e-01 -1.474978336833336068e-01 5.737518715477351039e-01 8.056383673548542790e-01
-4.629516601562500000e-02 3.005981445312500000e-02 -3.833007812500000000e-01 -7.676228761523565258e-02 5.694214397099726099e-01 8.184538931416344143e-01
-4.449462890625000000e-02 3.005981445312500000e-02 -3.833007812500000000e-01 -2.217573806356801583e-02 5.713900955042526819e-01 8.203789340304741273e-01
-4.269409179687500000e-02 3.005981445312500000e-02 -3.833007812500000000e-01 5.837767062245141636e-02 5.500251392945322282e-01 8.331052716894348231e-01
-4.089355468750000000e-02 3.005981445312500000e-02 -3.833007812500000000e-01 9.613923174773557345e-02 5.453137388894031545e-01 8.327005309818260592e-01
-3.909301757812500000e-02 3.005981445312500000e-02 -3.833007812500000000e-01 1.471975559600978145e-01 4.991381963467950156e-01 8.539285335829001067e-01
-3.738403320312500000e-02 3.013610839843750000e-02 -3.842773437500000000e-01 2.057618895848558893e-01 4.883873305310146851e-01 8.480211437053083445e-01
-3.558349609375000000e-02 3.013610839843750000e-02 -3.842773437500000000e-01 2.532379016078601941e-01 4.454534862953523078e-01 8.587442906573318213e-01
-3.387451171875000000e-02 3.021240234375000000e-02 -3.854980468750000000e-01 2.262431719722645673e-01 3.604430901692169953e-01 9.049280666910459736e-01
-3.204345703125000000e-02 3.021240234375000000e-02 -3.854980468750000000e-01 2.479952249174522672e-01 2.885644234750938675e-01 9.247858897726699556e-01
-3.033447265625000000e-02 3.028869628906250000e-02 -3.864746093750000000e-01 2.275633885461593453e-01 2.214073198147754051e-01 9.482582469590378205e-01
-2.851867675781250000e-02 3.028869628906250000e-02 -3.864746093750000000e-01 2.286549914785332704e-01 1.517293066233793841e-01 9.616106864961205813e-01
-2.670288085937500000e-02 3.028869628906250000e-02 -3.864746093750000000e-01 2.228893432401529984e-01 9.735265508986648553e-02 9.699705156430925568e-01
-2.494812011718750000e-02 3.036499023437500000e-02 -3.874511718750000000e-01 2.230082922564766423e-01 2.906686714229647639e-02 9.743830965382056508e-01
-2.313232421875000000e-02 3.036499023437500000e-02 -3.874511718750000000e-01 2.548243377740163074e-01 6.910094086523963647e-03 9.669626711914733885e-01
-2.136230468750000000e-02 3.045654296875000000e-02 -3.884277343750000000e-01 2.446547736535316930e-01 2.016576303256308392e-02 9.694005280222688370e-01
-1.954650878906250000e-02 3.045654296875000000e-02 -3.884277343750000000e-01 2.473113364528540803e-01 -3.914196222977055217e-02 9.681451387342221437e-01
-1.776123046875000000e-02 3.053283691406250000e-02 -3.894042968750000000e-01 2.124350117402955818e-01 -4.535524378732748267e-03 9.771646712839707760e-01
-1.593017578125000000e-02 3.053283691406250000e-02 -3.894042968750000000e-01 1.901679380048624246e-01 -6.931836979887424921e-02 9.793013422657018685e-01
-1.410675048828125000e-02 3.053283691406250000e-02 -3.894042968750000000e-01 1.640687025751756678e-01 -8.207917860744026739e-02 9.830282138750782162e-01
-1.227569580078125000e-02 3.053283691406250000e-02 -3.894042968750000000e-01 7.849747370982766703e-02 -8.286170867689948705e-02 9.934646867686437455e-01
-1.047515869140625000e-02 3.060913085937500000e-02 -3.903808593750000000e-01 1.652489099790149102e-02 -1.013799916803820311e-01 9.947105233505842969e-01
-8.644104003906250000e-03 3.060913085937500000e-02 -3.903808593750000000e-01 -2.517260658016174171e-02 -1.169604843737461763e-01 9.928174983213274851e-01
-6.793975830078125000e-03 3.053283691406250000e-02 -3.894042968750000000e-01 -5.545991176693162300e-02 -1.628386431725124817e-01 9.850927745530058122e-01
-4.962921142578125000e-03 3.053283691406250000e-02 -3.894042968750000000e-01 -1.231982782140328136e-01 -1.431009373890230196e-01 9.820103390308477787e-01
-3.135681152343750000e-03 3.053283691406250000e-02 -3.894042968750000000e-01 -1.278751281100394543e-01 -1.301737467962972017e-01 9.832104287770011553e-01
-1.306533813476562500e-03 3.053283691406250000e-02 -3.894042968750000000e-01 -1.227299998267897402e-01 -1.626264330698778404e-01 9.790250203184210909e-01
5.216598510742187500e-04 3.053283691406250000e-02 -3.894042968750000000e-01 -1.418794926553668956e-01 -1.954585592520285964e-01 9.703948480793666009e-01
2.344131469726562500e-03 3.045654296875000000e-02 -3.884277343750000000e-01 -1.425082440110578830e-01 -1.707043129677848770e-01 9.749622751281616928e-01
4.169464111328125000e-03 3.045654296875000000e-02 -3.884277343750000000e-01 -1.341341413558148621e-01 -1.464972425772659848e-01 9.800747879830374876e-01
5.992889404296875000e-03 3.045654296875000000e-02 -3.884277343750000000e-01 -1.285313705754137226e-01 -1.787476528368085182e-01 9.754634608140571039e-01
7.812500000000000000e-03 3.045654296875000000e-02 -3.884277343750000000e-01 -1.557577009500624721e-01 -1.942127642320269354e-01 9.685148118661407457e-01
9.613037109375000000e-03 3.036499023437500000e-02 -3.874511718750000000e-01 -1.818821409098062003e-01 -1.319736215758120779e-01 9.744238554275187481e-01
1.143646240234375000e-02 3.036499023437500000e-02 -3.874511718750000000e-01 -1.727768954356368181e-01 -1.133555969219617460e-01 9.784164006444744377e-01
1.325225830078125000e-02 3.036499023437500000e-02 -3.874511718750000000e-01 -1.527428330182029337e-01 -1.084486941831976498e-01 9.822975657566971330e-01
1.503753662109375000e-02 3.028869628906250000e-02 -3.864746093750000000e-01 -1.384545038330624589e-01 -4.599210497566555422e-02 9.893002964965935675e-01
1.684570312500000000e-02 3.028869628906250000e-02 -3.864746093750000000e-01 -1.137767550836447095e-01 9.354125522574016421e-04 9.935059008410536130e-01
1.866149902343750000e-02 3.028869628906250000e-02 -3.864746093750000000e-01 -9.820575385843618998e-02 4.043106548035113601e-02 9.943444870130369040e-01
2.047729492187500000e-02 3.028869628906250000e-02 -3.864746093750000000e-01 -8.064964175205537045e-02 9.356831852188901566e-02 9.923409721735021449e-01
2.229309082031250000e-02 3.028869628906250000e-02 -3.864746093750000000e-01 -1.042011772636600719e-01 1.762642194022936426e-01 9.788120553075383423e-01
2.410888671875000000e-02 3.028869628906250000e-02 -3.864746093750000000e-01 -1.066418080671731744e-01 2.328070774849338442e-01 9.666583623209847875e-01
2.584838867187500000e-02 3.021240234375000000e-02 -3.854980468750000000e-01 -1.060766268116869609e-01 2.905974114300188815e-01 9.509473664269891824e-01
2.766418457031250000e-02 3.021240234375000000e-02 -3.854980468750000000e-01 -8.513726980503676101e-02 3.804576921795251310e-01 9.208711037661969634e-01
2.947998046875000000e-02 3.021240234375000000e-02 -3.854980468750000000e-01 -6.731331511140156709e-02 4.345784603572255267e-01 8.981149589012848988e-01
3.128051757812500000e-02 3.021240234375000000e-02 -3.854980468750000000e-01 -4.202422440072273169e-02 5.328950815691820830e-01 8.451371466234887109e-01
3.308105468750000000e-02 3.021240234375000000e-02 -3.854980468750000000e-01 -4.099548639498200309e-02 5.801844321815373684e-01 8.134527612279806030e-01
3.491210937500000000e-02 3.021240234375000000e-02 -3.854980468750000000e-01 9.954707870225387549e-04 6.091347657554132544e-01 7.930661045499360906e-01
3.671264648437500000e-02 3.021240234375000000e-02 -3.854980468750000000e-01 1.464781095932173385e-02 6.320715754227101968e-01 7.747715567680276694e-01
3.851318359375000000e-02 3.021240234375000000e-02 -3.854980468750000000e-01 3.524641959343734893e-02 6.520365520132959114e-01 7.573678265839234314e-01
4.034423828125000000e-02 3.021240234375000000e-02 -3.854980468750000000e-01 3.639992942455043401e-02 6.638345706125085011e-01 7.469931110777355832e-01
4.214477539062500000e-02 3.021240234375000000e-02 -3.854980468750000000e-01 6.294483777250781120e-02 6.594268802089349180e-01 7.491289188488879924e-01
4.406738281250000000e-02 3.028869628906250000e-02 -3.864746093750000000e-01 8.091978492427182035e-02 6.336687158323235369e-01 7.693607391745588275e-01
4.586791992187500000e-02 3.028869628906250000e-02 -3.864746093750000000e-01 1.054925155137752674e-01 6.124209180846407197e-01 7.834615167721651341e-01
4.769897460937500000e-02 3.028869628906250000e-02 -3.864746093750000000e-01 1.396686243757046531e-01 5.660194147233651440e-01 8.124744288414358362e-01
4.949951171875000000e-02 3.028869628906250000e-02 -3.864746093750000000e-01 1.944904637484718424e-01 5.106721601501631458e-01 8.374887487951527820e-01
5.145263671875000000e-02 3.036499023437500000e-02 -3.874511718750000000e-01 2.281392120014622826e-01 4.120567359668778074e-01 8.821347665134136040e-01
5.328369140625000000e-02 3.036499023437500000e-02 -3.874511718750000000e-01 2.705667452115795291e-01 3.395811389441919514e-01 9.008208958827373936e-01
5.523681640625000000e-02 3.045654296875000000e-02 -3.884277343750000000e-01 2.714064271676595030e-01 2.833215156446294847e-01 9.198192594553105117e-01
5.722045898437500000e-02 3.053283691406250000e-02 -3.894042968750000000e-01 2.709456541009011010e-01 2.268462045045334385e-01 9.354834322561369486e-01
5.905151367187500000e-02 3.053283691406250000e-02 -3.894042968750000000e-01 2.419201873682740311e-01 1.793308858578289144e-01 9.535801258002105651e-01
6.103515625000000000e-02 3.060913085937500000e-02 -3.903808593750000000e-01 1.713461231530222784e-01 2.031614678848875366e-01 9.640362669771751492e-01
6.286621093750000000e-02 3.060913085937500000e-02 -3.903808593750000000e-01 5.422699728700943606e-02 2.013032027658205048e-01 9.780268162588681147e-01
6.469726562500000000e-02 3.060913085937500000e-02 -3.903808593750000000e-01 -2.263014127766773201e-02 2.647942349924816696e-01 9.640393611365145610e-01
6.652832031250000000e-02 3.060913085937500000e-02 -3.903808593750000000e-01 -9.440548876796693578e-02 3.493953165712027076e-01 9.322073355475112288e-01
6.835937500000000000e-02 3.060913085937500000e-02 -3.903808593750000000e-01 -1.093355537165528885e-01 4.504320343480598399e-01 8.860906946394160322e-01
7.019042968750000000e-02 3.060913085937500000e-02 -3.903808593750000000e-01 -1.100316740484784395e-01 5.479296028787097317e-01 8.292564024445449045e-01
7.183837890625000000e-02 3.053283691406250000e-02 -3.894042968750000000e-01 -2.308920007592942525e-01 5.709421870844842983e-01 7.878539858327529011e-01
7.366943359375000000e-02 3.053283691406250000e-02 -3.894042968750000000e-01 2.687383531325171493e-01 -5.753220116378771065e-01 -7.725181424928277973e-01
7.531738281250000000e-02 3.045654296875000000e-02 -3.884277343750000000e-01 4.035923696352318180e-01 -5.744014929507184064e-01 -7.121629898191873531e-01
7.690429687500000000e-02 3.036499023437500000e-02 -3.874511718750000000e-01 4.380938727634472452e-01 -5.877442762756075467e-01 -6.801694085684735214e-01
7.830810546875000000e-02 3.021240234375000000e-02 -3.854980468750000000e-01 4.518617359316086657e-01 -4.482250018245858003e-01 -7.713075387549531703e-01
7.995605468750000000e-02 3.013610839843750000e-02 -3.842773437500000000e-01 3.956159806228254361e-01 -4.116043324561033390e-01 -8.210175816504817758e-01
-9.228515625000000000e-02 2.854919433593750000e-02 -3.874511718750000000e-01 3.775838239919406258e-01 -6.650639082576862426e-01 -6.442984198278273178e-01
-9.045410156250000000e-02 2.854919433593750000e-02 -3.874511718750000000e-01 2.908930165053786321e-01 -6.859855732315787158e-01 -6.669370631975284347e-01
-8.837890625000000000e-02 2.847290039062500000e-02 -3.864746093750000000e-01 -1.725867418235824402e-01 6.960696607688284798e-01 6.969224088116897642e-01
-8.636474609375000000e-02 2.839660644531250000e-02 -3.854980468750000000e-01 -1.037922528256410432e-01 6.992021418309632974e-01 7.073496540695920487e-01
-8.453369140625000000e-02 2.839660644531250000e-02 -3.854980468750000000e-01 2.193798332241791299e-02 6.823471296214100867e-01 7.306990622583059425e-01
-8.270263671875000000e-02 2.839660644531250000e-02 -3.854980468750000000e-01 1.633464436524899033e-01 6.513420943887242576e-01 7.409935326461318805e-01
-8.093261718750000000e-02 2.839660644531250000e-02 -3.854980468750000000e-01 2.335136529345509526e-01 5.815585573655306373e-01 7.792695414605173010e-01
-7.934570312500000000e-02 2.847290039062500000e-02 -3.864746093750000000e-01 2.837426693343667594e-01 4.877807650966387021e-01 8.255664859965828883e-01
-7.769775390625000000e-02 2.854919433593750000e-02 -3.874511718750000000e-01 3.247426622599378643e-01 3.994129691531065895e-01 8.573281071915392904e-01
-7.586669921875000000e-02 2.854919433593750000e-02 -3.874511718750000000e-01 3.376295317926296669e-01 2.304791884996465201e-01 9.126256861002949305e-01
-7.427978515625000000e-02 2.862548828125000000e-02 -3.884277343750000000e-01 2.782420440994187727e-01 2.175714270072670042e-01 9.355447819561597544e-01
-7.263183593750000000e-02 2.870178222656250000e-02 -3.894042968750000000e-01 1.989993970847660776e-01 1.318727839351274411e-01 9.710864064629362025e-01
-7.080078125000000000e-02 2.870178222656250000e-02 -3.894042968750000000e-01 1.146256621964475003e-01 8.760953348644108518e-02 9.895380372720971041e-01
-6.896972656250000000e-02 2.870178222656250000e-02 -3.894042968750000000e-01 4.248301386616439718e-03 8.634447560820524004e-02 9.962562840290004607e-01
-6.713867187500000000e-02 2.870178222656250000e-02 -3.894042968750000000e-01 -7.766625789895509335e-02 7.986251799300003729e-02 9.937755936849076432e-01
-6.530761718750000000e-02 2.870178222656250000e-02 -3.894042968750000000e-01 -1.727358777615156660e-01 9.686818017045094320e-02 9.801932830847310818e-01
-6.329345703125000000e-02 2.862548828125000000e-02 -3.884277343750000000e-01 -2.675127948916449783e-01 1.082791410142166511e-01 9.574510599453550652e-01
-6.134033203125000000e-02 2.854919433593750000e-02 -3.874511718750000000e-01 -3.817154240392168218e-01 1.711995092729419188e-01 9.082863331985485678e-01
-5.935668945312500000e-02 2.847290039062500000e-02 -3.864746093750000000e-01 -4.018824364121943993e-01 2.444377752171856821e-01 8.824628498414373023e-01
-5.740356445312500000e-02 2.839660644531250000e-02 -3.854980468750000000e-01 -3.853690234211090138e-01 3.528102110576017969e-01 8.526521393633812451e-01
-5.545043945312500000e-02 2.833557128906250000e-02 -3.842773437500000000e-01 -3.639408899276350140e-01 3.878838334401729648e-01 8.468135334265964875e-01
-5.364990234375000000e-02 2.833557128906250000e-02 -3.842773437500000000e-01 -3.268736294406965892e-01 4.355138750070792764e-01 8.387379179771141668e-01
-5.169677734375000000e-02 2.825927734375000000e-02 -3.833007812500000000e-01 -2.502319281278368446e-01 4.831610883450717098e-01 8.390109325000663087e-01
-4.977416992187500000e-02 2.818298339843750000e-02 -3.823242187500000000e-01 -2.205436414953876878e-01 5.118357105843132082e-01 8.302919411668434613e-01
-4.797363281250000000e-02 2.818298339843750000e-02 -3.823242187500000000e-01 -1.465455304848877482e-01 5.225263268792319504e-01 8.399349053426705680e-01
-4.617309570312500000e-02 2.818298339843750000e-02 -3.823242187500000000e-01 -6.796138464037446147e-02 5.269909655316495911e-01 8.471492031783910415e-01
-4.437255859375000000e-02 2.818298339843750000e-02 -3.823242187500000000e-01 -1.155556201193840699e-02 5.084175244326935017e-01 8.610331525767863647e-01
-4.257202148437500000e-02 2.818298339843750000e-02 -3.823242187500000000e-01 7.017126118506716859e-02 4.987312242692457098e-01 8.639115464227783425e-01
-4.077148437500000000e-02 2.818298339843750000e-02 -3.823242187500000000e-01 1.243130496660201922e-01 4.890706498168686522e-01 8.633401213718956413e-01
-3.900146484375000000e-02 2.818298339843750000e-02 -3.823242187500000000e-01 2.134031312398528002e-01 4.417900055420409533e-01 8.713671410950665219e-01
-3.729248046875000000e-02 2.825927734375000000e-02 -3.833007812500000000e-01 2.545247608627946856e-01 4.181072279068734909e-01 8.720111765796164649e-01
-3.549194335937500000e-02 2.825927734375000000e-02 -3.833007812500000000e-01 2.977198245955354761e-01 3.629919577486188098e-01 8.829494575866891903e-01
-3.378295898437500000e-02 2.833557128906250000e-02 -3.842773437500000000e-01 3.395553685347815209e-01 2.918222593537178056e-01 8.941710801881819215e-01
-3.204345703125000000e-02 2.839660644531250000e-02 -3.854980468750000000e-01 3.136510236387765049e-01 1.897011436424073383e-01 9.303958896465044370e-01
-3.025817871093750000e-02 2.839660644531250000e-02 -3.854980468750000000e-01 3.326825535915544640e-01 1.217518756788187884e-01 9.351464052780676939e-01
-2.851867675781250000e-02 2.847290039062500000e-02 -3.864746093750000000e-01 2.977903931456652997e-01 8.357537501838013805e-02 9.509658450442303179e-01
-2.670288085937500000e-02 2.847290039062500000e-02 -3.864746093750000000e-01 2.746792408241664485e-01 -1.382483445387930159e-02 9.614365234442585617e-01
-2.494812011718750000e-02 2.854919433593750000e-02 -3.874511718750000000e-01 2.793797862463868742e-01 -3.804639031590132531e-02 9.594266033526761550e-01
-2.313232421875000000e-02 2.854919433593750000e-02 -3.874511718750000000e-01 2.793242143089548213e-01 -1.154421735993037268e-01 9.532319171405001512e-01
-2.136230468750000000e-02 2.862548828125000000e-02 -3.884277343750000000e-01 2.673749118472049102e-01 -1.309954497832261644e-01 9.546469759292121049e-01
-1.954650878906250000e-02 2.862548828125000000e-02 -3.884277343750000000e-01 2.737772594515963109e-01 -1.261705529136991355e-01 9.534815172747843626e-01
-1.776123046875000000e-02 2.870178222656250000e-02 -3.894042968750000000e-01 2.278214801013049851e-01 -1.673258486856128435e-01 9.592181365915107838e-01
-1.593017578125000000e-02 2.870178222656250000e-02 -3.894042968750000000e-01 2.092481213884813951e-01 -1.754945274416866707e-01 9.619859118164935108e-01
-1.414489746093750000e-02 2.877807617187500000e-02 -3.903808593750000000e-01 1.807139085893247343e-01 -1.954301441659926919e-01 9.639240333105241199e-01
-1.231384277343750000e-02 2.877807617187500000e-02 -3.903808593750000000e-01 1.319387961443625468e-01 -1.975490580509537963e-01 9.713735243124331786e-01
-1.047515869140625000e-02 2.877807617187500000e-02 -3.903808593750000000e-01 6.189863190700065076e-02 -2.274079751648735437e-01 9.718303206833247554e-01
-8.644104003906250000e-03 2.877807617187500000e-02 -3.903808593750000000e-01 -3.212305849779576589e-02 -2.537988769637409825e-01 9.667234553711268052e-01
-6.809234619140625000e-03 2.877807617187500000e-02 -3.903808593750000000e-01 -4.724908257198181388e-02 -2.652474681680499491e-01 9.630219648723207237e-01
-4.978179931640625000e-03 2.877807617187500000e-02 -3.903808593750000000e-01 -7.780557510957636369e-02 -2.892496887645167325e-01 9.540864269192274039e-01
-3.143310546875000000e-03 2.877807617187500000e-02 -3.903808593750000000e-01 -9.985482189360411764e-02 -3.075372831857103861e-01 9.462821112096269083e-01
-1.310348510742187500e-03 2.877807617187500000e-02 -3.903808593750000000e-01 -1.288818693934901949e-01 -3.134194039176029234e-01 9.408282207659237617e-01
5.216598510742187500e-04 2.870178222656250000e-02 -3.894042968750000000e-01 -1.105683502810054508e-01 -3.141857888624428607e-01 9.429008060199234320e-01
2.349853515625000000e-03 2.870178222656250000e-02 -3.894042968750000000e-01 -1.115070084282659968e-01 -3.057656397303530338e-01 9.455546312253282348e-01
4.177093505859375000e-03 2.870178222656250000e-02 -3.894042968750000000e-01 -1.275093123996679512e-01 -3.204197980309984040e-01 9.386546373832806989e-01
6.008148193359375000e-03 2.870178222656250000e-02 -3.894042968750000000e-01 -1.515703964372166757e-01 -3.130164028966796463e-01 9.375751417574424984e-01
7.812500000000000000e-03 2.862548828125000000e-02 -3.884277343750000000e-01 -1.730493587398581612e-01 -2.870169490316312744e-01 9.421651608971209901e-01
9.635925292968750000e-03 2.862548828125000000e-02 -3.884277343750000000e-01 -1.717094635654886903e-01 -2.415846285105679725e-01 9.550668706375815553e-01
1.143646240234375000e-02 2.854919433593750000e-02 -3.874511718750000000e-01 -2.097102848303383782e-01 -2.292080241516181727e-01 9.505184259660038881e-01
1.325225830078125000e-02 2.854919433593750000e-02 -3.874511718750000000e-01 -1.962385221278151182e-01 -1.828150442221116723e-01 9.633634319607312646e-01
1.507568359375000000e-02 2.854919433593750000e-02 -3.874511718750000000e-01 -1.897678092323175081e-01 -1.605707673461367613e-01 9.686099355535434663e-01
1.684570312500000000e-02 2.847290039062500000e-02 -3.864746093750000000e-01 -1.703700374783620186e-01 -1.224269769240275557e-01 9.777452048723456191e-01
1.866149902343750000e-02 2.847290039062500000e-02 -3.864746093750000000e-01 -1.450678329765641983e-01 -6.556281658210177943e-02 9.872471022582468558e-01
2.047729492187500000e-02 2.847290039062500000e-02 -3.864746093750000000e-01 -1.549889855647060555e-01 1.694604888860388320e-02 9.877708467963044470e-01
2.223205566406250000e-02 2.839660644531250000e-02 -3.854980468750000000e-01 -1.629494132549428043e-01 6.407218654482114972e-02 9.845517983484847191e-01
2.404785156250000000e-02 2.839660644531250000e-02 -3.854980468750000000e-01 -1.880898506243108004e-01 1.296867232901722788e-01 9.735520334806879728e-01
2.584838867187500000e-02 2.839660644531250000e-02 -3.854980468750000000e-01 -1.767683525242995934e-01 2.242476003880443658e-01 9.583662991080439397e-01
2.766418457031250000e-02 2.839660644531250000e-02 -3.854980468750000000e-01 -1.371240462162951479e-01 3.032893371676263494e-01 9.429806858624906196e-01
2.940368652343750000e-02 2.833557128906250000e-02 -3.842773437500000000e-01 -1.355661220898398966e-01 3.710935056179754943e-01 9.186465243115461421e-01
3.120422363281250000e-02 2.833557128906250000e-02 -3.842773437500000000e-01 -1.474508848948625772e-01 4.162696357250327828e-01 8.972055655852065881e-01
3.298950195312500000e-02 2.833557128906250000e-02 -3.842773437500000000e-01 -1.037804630525010346e-01 5.259305043682690473e-01 8.441722099569178850e-01
3.482055664062500000e-02 2.833557128906250000e-02 -3.842773437500000000e-01 -4.859876863693417953e-02 5.830329301423778920e-01 8.109936880497694567e-01
3.652954101562500000e-02 2.825927734375000000e-02 -3.833007812500000000e-01 -4.301450772113747656e-02 6.111529938287266761e-01 7.903428181869514013e-01
3.833007812500000000e-02 2.825927734375000000e-02 -3.833007812500000000e-01 -1.713753894283666715e-02 6.310692872514457319e-01 7.755371425321516687e-01
4.022216796875000000e-02 2.833557128906250000e-02 -3.842773437500000000e-01 4.650801367466290970e-02 6.497492734968179917e-01 7.587245127543953416e-01
4.202270507812500000e-02 2.833557128906250000e-02 -3.842773437500000000e-01 8.300784465577372429e-02 6.419174818920612147e-01 7.622674361186880798e-01
4.382324218750000000e-02 2.833557128906250000e-02 -3.842773437500000000e-01 1.034774621305711434e-01 6.167700146669848893e-01 7.803122220231485384e-01
4.565429687500000000e-02 2.833557128906250000e-02 -3.842773437500000000e-01 1.588517378071042929e-01 5.891012407531963646e-01 7.922915205520677517e-01
4.757690429687500000e-02 2.839660644531250000e-02 -3.854980468750000000e-01 2.141764229038329859e-01 5.473768996070251802e-01 8.090160626642213249e-01
4.937744140625000000e-02 2.839660644531250000e-02 -3.854980468750000000e-01 2.876497177546468165e-01 4.534751731119114893e-01 8.435744823350183053e-01
5.133056640625000000e-02 2.847290039062500000e-02 -3.864746093750000000e-01 3.283469902386782491e-01 3.817012721606303782e-01 8.639979125160881512e-01
5.328369140625000000e-02 2.854919433593750000e-02 -3.874511718750000000e-01 3.422355055022430204e-01 2.875453628099859382e-01 8.945348082104451759e-01
5.523681640625000000e-02 2.862548828125000000e-02 -3.884277343750000000e-01 3.320571447424974232e-01 2.098556647193767222e-01 9.196187539467910455e-01
5.706787109375000000e-02 2.862548828125000000e-02 -3.884277343750000000e-01 3.457351254506954574e-01 1.342212653622052443e-01 9.286828710351884286e-01
5.905151367187500000e-02 2.870178222656250000e-02 -3.894042968750000000e-01 2.591980943941514792e-01 1.117883866273633037e-01 9.593329476660810151e-01
6.088256835937500000e-02 2.870178222656250000e-02 -3.894042968750000000e-01 1.625546499339941275e-01 8.091641244856181969e-02 9.833760826770654440e-01
6.286621093750000000e-02 2.877807617187500000e-02 -3.903808593750000000e-01 2.889635149146588602e-02 7.356332899914135026e-02 9.968718260122741981e-01
6.469726562500000000e-02 2.877807617187500000e-02 -3.903808593750000000e-01 -8.494810090567463112e-02 1.479511915232652186e-01 9.853396699003675874e-01
6.634521484375000000e-02 2.870178222656250000e-02 -3.894042968750000000e-01 -1.577383940535224127e-01 1.935003674036884502e-01 9.683368251058375176e-01
6.817626953125000000e-02 2.870178222656250000e-02 -3.894042968750000000e-01 -2.245444286832589675e-01 2.557252376250649939e-01 9.403108009530215528e-01
6.982421875000000000e-02 2.862548828125000000e-02 -3.884277343750000000e-01 -2.705997099934675520e-01 3.062757852852660556e-01 9.126724167516758746e-01
7.165527343750000000e-02 2.862548828125000000e-02 -3.884277343750000000e-01 -3.151335210276645094e-01 4.348904156362300433e-01 8.435408646369503272e-01
7.330322265625000000e-02 2.854919433593750000e-02 -3.874511718750000000e-01 -4.486020885725686136e-01 3.800727394535172721e-01 8.088886690099126309e-01
7.489013671875000000e-02 2.847290039062500000e-02 -3.864746093750000000e-01 -4.945867646577097321e-01 4.001482510877595322e-01 7.715343863865218310e-01
7.653808593750000000e-02 2.839660644531250000e-02 -3.854980468750000000e-01 -5.104133475970850098e-01 4.034016036089546620e-01 7.594375292283500611e-01
7.794189453125000000e-02 2.825927734375000000e-02 -3.833007812500000000e-01 4.547539156059835497e-01 -3.871437117710063713e-01 -8.020714573385552271e-01
7.971191406250000000e-02 2.825927734375000000e-02 -3.833007812500000000e-01 3.866426158211043740e-01 -3.867824863882151631e-01 -8.372017653196653919e-01
8.129882812500000000e-02 2.818298339843750000e-02 -3.823242187500000000e-01 2.717693013556189974e-01 -3.141322893566628194e-01 -9.096495762788110451e-01
8.312988281250000000e-02 2.818298339843750000e-02 -3.823242187500000000e-01 1.677777488293212826e-01 -2.473258968749132980e-01 -9.542958282067384168e-01
8.465576171875000000e-02 2.810668945312500000e-02 -3.813476562500000000e-01 -3.105798943090332109e-02 -2.617327192877380027e-01 -9.646405470157036754e-01
-9.661865234375000000e-02 2.693176269531250000e-02 -3.903808593750000000e-01 -5.233320070778971767e-01 5.989620500143219006e-01 6.061089613348915606e-01
-9.405517578125000000e-02 2.673339843750000000e-02 -3.874511718750000000e-01 -4.531437220298488167e-01 6.211062550666318627e-01 6.394433415886346950e-01
-9.179687500000000000e-02 2.659606933593750000e-02 -3.854980468750000000e-01 -3.935209070411490040e-01 6.434584579555251427e-01 6.565839691973975878e-01
-8.972167968750000000e-02 2.651977539062500000e-02 -3.842773437500000000e-01 -2.775279223100288184e-01 6.581748813758624417e-01 6.998457529085591045e-01
-8.770751953125000000e-02 2.645874023437500000e-02 -3.833007812500000000e-01 -1.747012743308737626e-01 6.655210920652252504e-01 7.256453271147542683e-01
-8.587646484375000000e-02 2.645874023437500000e-02 -3.833007812500000000e-01 -3.785368008536849072e-02 6.630248887498459975e-01 7.476396831377056795e-01
-8.410644531250000000e-02 2.645874023437500000e-02 -3.833007812500000000e-01 1.197691223356368156e-01 6.439287012744920879e-01 7.556528204207915156e-01
-8.227539062500000000e-02 2.645874023437500000e-02 -3.833007812500000000e-01 2.502059272288845171e-01 5.932758519514919060e-01 7.651279353616396994e-01
-8.068847656250000000e-02 2.651977539062500000e-02 -3.842773437500000000e-01 3.538406777684827698e-01 5.303827986543366846e-01 7.703835808530282714e-01
-7.910156250000000000e-02 2.659606933593750000e-02 -3.854980468750000000e-01 4.364365367634938098e-01 4.167459941895256814e-01 7.973994768651853082e-01
-7.751464843750000000e-02 2.665710449218750000e-02 -3.864746093750000000e-01 4.855393396968473718e-01 2.867566915367756875e-01 8.258463231531831816e-01
-7.586669921875000000e-02 2.673339843750000000e-02 -3.874511718750000000e-01 4.314544422343737917e-01 1.629327544341883649e-01 8.872992628243944191e-01
-7.427978515625000000e-02 2.679443359375000000e-02 -3.884277343750000000e-01 3.581698521962404791e-01 1.086020876234539273e-01 9.273186849953746203e-01
-7.263183593750000000e-02 2.687072753906250000e-02 -3.894042968750000000e-01 2.680017269124121970e-01 4.327839435395667428e-02 9.624458711813917988e-01
-7.080078125000000000e-02 2.687072753906250000e-02 -3.894042968750000000e-01 1.678060840969973488e-01 -6.686565399996461300e-04 9.858197964326252949e-01
-6.896972656250000000e-02 2.687072753906250000e-02 -3.894042968750000000e-01 4.499843225634774652e-02 -1.385665146190186332e-02 9.988909521588100748e-01
-6.713867187500000000e-02 2.687072753906250000e-02 -3.894042968750000000e-01 -1.024889507263467697e-01 3.602653184207871111e-03 9.947276189334680607e-01
-6.512451171875000000e-02 2.679443359375000000e-02 -3.884277343750000000e-01 -2.270128837289129842e-01 8.191486020832789913e-03 9.738573048336462978e-01
-6.329345703125000000e-02 2.679443359375000000e-02 -3.884277343750000000e-01 -3.239279108798563400e-01 7.222582632611075637e-02 9.433208036317879408e-01
-6.134033203125000000e-02 2.673339843750000000e-02 -3.874511718750000000e-01 -4.361774535107445505e-01 1.390239065139558805e-01 8.890565687662855821e-01
-5.935668945312500000e-02 2.665710449218750000e-02 -3.864746093750000000e-01 -4.508250996198528426e-01 1.857924931959774872e-01 8.730623568936942691e-01
-5.740356445312500000e-02 2.659606933593750000e-02 -3.854980468750000000e-01 -4.521102862125910837e-01 2.708685241319654380e-01 8.498391210901860005e-01
-5.545043945312500000e-02 2.651977539062500000e-02 -3.842773437500000000e-01 -4.128950384116287231e-01 3.519282117420312606e-01 8.400382259368411875e-01
-5.349731445312500000e-02 2.645874023437500000e-02 -3.833007812500000000e-01 -3.648755001803354325e-01 3.966491044016882683e-01 8.423392175041410912e-01
-5.157470703125000000e-02 2.638244628906250000e-02 -3.823242187500000000e-01 -2.906379477678859846e-01 4.358265126836330938e-01 8.518126755098768266e-01
-4.965209960937500000e-02 2.632141113281250000e-02 -3.813476562500000000e-01 -2.424070467532738749e-01 4.782397338050315971e-01 8.441123033663522346e-01
-4.785156250000000000e-02 2.632141113281250000e-02 -3.813476562500000000e-01 -1.499441084372253874e-01 5.055418911397364656e-01 8.496729727653012931e-01
-4.605102539062500000e-02 2.632141113281250000e-02 -3.813476562500000000e-01 -6.345057810559762146e-02 5.262486867590961959e-01 8.479601074475096034e-01
-4.415893554687500000e-02 2.624511718750000000e-02 -3.803710937500000000e-01 1.830908719788239269e-02 5.159848517654280764e-01 8.564020142868589147e-01
-4.248046875000000000e-02 2.632141113281250000e-02 -3.813476562500000000e-01 9.484901742537105163e-02 5.049561354058254015e-01 8.579178079568319237e-01
-4.067993164062500000e-02 2.632141113281250000e-02 -3.813476562500000000e-01 1.884443085706754284e-01 4.683267616646972220e-01 8.632258029484393136e-01
-3.887939453125000000e-02 2.632141113281250000e-02 -3.813476562500000000e-01 2.707110173048044022e-01 4.026036841530958310e-01 8.744288528040187192e-01
-3.720092773437500000e-02 2.638244628906250000e-02 -3.823242187500000000e-01 3.049327045950342985e-01 3.539309386315061534e-01 8.841656724549865620e-01
-3.549194335937500000e-02 2.645874023437500000e-02 -3.833007812500000000e-01 3.706828899110829467e-01 2.804955031879389771e-01 8.853905735993086168e-01
-3.378295898437500000e-02 2.651977539062500000e-02 -3.842773437500000000e-01 4.087119674827272564e-01 2.157722006701111861e-01 8.867902147939924484e-01
-3.198242187500000000e-02 2.651977539062500000e-02 -3.842773437500000000e-01 4.064315941619167094e-01 1.436122322481759583e-01 9.023241579475188567e-01
-3.025817871093750000e-02 2.659606933593750000e-02 -3.854980468750000000e-01 3.773321840165068664e-01 8.091050345910601183e-02 9.225366731655315622e-01
-2.851867675781250000e-02 2.665710449218750000e-02 -3.864746093750000000e-01 3.814986663376576659e-01 -4.118708884109478774e-03 9.243602132392525483e-01
-2.670288085937500000e-02 2.665710449218750000e-02 -3.864746093750000000e-01 3.446245626705271570e-01 -8.792220952654476729e-02 9.346141427755724207e-01
-2.494812011718750000e-02 2.673339843750000000e-02 -3.874511718750000000e-01 3.396054662776625821e-01 -1.422710079682713291e-01 9.297457112383059608e-01
-2.319335937500000000e-02 2.679443359375000000e-02 -3.884277343750000000e-01 3.344091416854461651e-01 -2.330749409902606040e-01 9.131520124489621582e-01
-2.136230468750000000e-02 2.679443359375000000e-02 -3.884277343750000000e-01 3.122786653386607769e-01 -2.276742553892072418e-01 9.223049759202618381e-01
-1.959228515625000000e-02 2.687072753906250000e-02 -3.894042968750000000e-01 2.815311773661369199e-01 -2.798764456361443331e-01 9.178286176345316072e-01
-1.776123046875000000e-02 2.687072753906250000e-02 -3.894042968750000000e-01 2.454231701390500175e-01 -2.832892155143750257e-01 9.271001498932835982e-01
-1.597595214843750000e-02 2.693176269531250000e-02 -3.903808593750000000e-01 2.110956610708991099e-01 -3.353755327999543012e-01 9.181295517933114603e-01
-1.414489746093750000e-02 2.693176269531250000e-02 -3.903808593750000000e-01 1.908577564731051002e-01 -3.464068716564891459e-01 9.184637151587521364e-01
-1.234436035156250000e-02 2.700805664062500000e-02 -3.913574218750000000e-01 1.595714028810044649e-01 -3.573939757370199199e-01 9.202209047231401096e-01
-1.050567626953125000e-02 2.700805664062500000e-02 -3.913574218750000000e-01 7.310589726444158276e-02 -3.691440804847588297e-01 9.264924045172863165e-01
-8.666992187500000000e-03 2.700805664062500000e-02 -3.913574218750000000e-01 2.213119915712773861e-02 -3.921708552277538007e-01 9.196261361737169127e-01
-6.828308105468750000e-03 2.700805664062500000e-02 -3.913574218750000000e-01 -4.372119194408395637e-02 -4.179575738307292898e-01 9.074138658035366678e-01
-4.989624023437500000e-03 2.700805664062500000e-02 -3.913574218750000000e-01 -5.504983204235645161e-02 -4.512592514830206514e-01 8.906933276628338225e-01
-3.150939941406250000e-03 2.700805664062500000e-02 -3.913574218750000000e-01 -8.380397533726562098e-02 -4.499031261807704407e-01 8.891366997095783153e-01
-1.310348510742187500e-03 2.693176269531250000e-02 -3.903808593750000000e-01 -1.190706917628016615e-01 -4.310728523186814765e-01 8.944262777652298713e-01
5.230903625488281250e-04 2.693176269531250000e-02 -3.903808593750000000e-01 -1.354201765498628807e-01 -4.360819683530018920e-01 8.896594250951177507e-01
2.355575561523437500e-03 2.693176269531250000e-02 -3.903808593750000000e-01 -1.292416613839798278e-01 -4.532144208798895568e-01 8.819825858083679693e-01
4.188537597656250000e-03 2.693176269531250000e-02 -3.903808593750000000e-01 -1.116025818960527383e-01 -4.335677896338969717e-01 8.941833343929598277e-01
6.008148193359375000e-03 2.687072753906250000e-02 -3.894042968750000000e-01 -1.500041561829817127e-01 -4.296957326193606153e-01 8.904270495085728765e-01
7.835388183593750000e-03 2.687072753906250000e-02 -3.894042968750000000e-01 -1.984645737865259885e-01 -4.253571372834653586e-01 8.829966697070538162e-01
9.666442871093750000e-03 2.687072753906250000e-02 -3.894042968750000000e-01 -2.403694849071851269e-01 -3.922254977130228970e-01 8.879085930822080419e-01
1.146697998046875000e-02 2.679443359375000000e-02 -3.884277343750000000e-01 -2.209448538277285767e-01 -3.357188747501889670e-01 9.156834653435161897e-01
1.329040527343750000e-02 2.679443359375000000e-02 -3.884277343750000000e-01 -2.492458733071876709e-01 -3.363119820599350662e-01 9.081688969361675356e-01
