-2.206802368164062500e-03 8.068847656250000000e-02 -2.739257812500000000e-01 -1.697930199256683041e-03 6.452634080613509626e-01 7.639582784747404043e-01
-9.198188781738281250e-04 8.068847656250000000e-02 -2.739257812500000000e-01 2.020951644115127205e-02 6.461511881715304995e-01 7.629418178798001993e-01
3.671646118164062500e-04 8.068847656250000000e-02 -2.739257812500000000e-01 3.658457255473249181e-02 6.488537148890481943e-01 7.600331740954926474e-01
1.653671264648437500e-03 8.068847656250000000e-02 -2.739257812500000000e-01 4.318978203639205898e-02 6.496267385113380088e-01 7.590255221919555151e-01
2.941131591796875000e-03 8.068847656250000000e-02 -2.739257812500000000e-01 4.271019273386662818e-02 6.504749389781726565e-01 7.583259148927844473e-01
4.226684570312500000e-03 8.068847656250000000e-02 -2.739257812500000000e-01 3.518528628855042972e-02 6.514200481288835443e-01 7.579009938801740676e-01
5.512237548828125000e-03 8.068847656250000000e-02 -2.739257812500000000e-01 -9.318555715570572481e-03 6.490915443814458952e-01 7.606532268595758151e-01
6.801605224609375000e-03 8.068847656250000000e-02 -2.739257812500000000e-01 -2.321332521106209135e-03 6.613243690749448511e-01 7.500964539863872460e-01
8.087158203125000000e-03 8.068847656250000000e-02 -2.739257812500000000e-01 -8.434055588762274375e-03 6.562749491170869476e-01 7.544746900113286081e-01
9.376525878906250000e-03 8.068847656250000000e-02 -2.739257812500000000e-01 3.742017912094547372e-02 -6.664840892955293805e-01 -7.445795383372184606e-01
3.833007812500000000e-02 8.807373046875000000e-02 -2.990722656250000000e-01 5.790202434515991925e-01 4.454226902611725381e-01 -6.828866558029599299e-01
3.958129882812500000e-02 8.776855468750000000e-02 -2.980957031250000000e-01 5.922528420304775665e-01 4.395359873020809882e-01 -6.753108076828082673e-01
4.098510742187500000e-02 8.776855468750000000e-02 -2.980957031250000000e-01 6.003378125580579594e-01 4.103958511300020984e-01 -6.864180622538189613e-01
4.223632812500000000e-02 8.746337890625000000e-02 -2.971191406250000000e-01 6.080238230477728045e-01 3.901071832683150609e-01 -6.914646890252830191e-01
4.348754882812500000e-02 8.715820312500000000e-02 -2.961425781250000000e-01 6.102813501086091774e-01 3.865847540484765865e-01 -6.914541934552799196e-01
4.473876953125000000e-02 8.685302734375000000e-02 -2.949218750000000000e-01 5.935351432302935493e-01 3.849180213060193201e-01 -7.067914477584272825e-01
4.595947265625000000e-02 8.654785156250000000e-02 -2.939453125000000000e-01 -5.787773150228783248e-01 -3.614547617737421947e-01 7.310042919203656453e-01
4.718017578125000000e-02 8.630371093750000000e-02 -2.929687500000000000e-01 -5.832782966417984216e-01 -3.659286716820644991e-01 7.251776581691151691e-01
4.840087890625000000e-02 8.599853515625000000e-02 -2.919921875000000000e-01 -6.104798650916146707e-01 -3.545265443363543323e-01 7.082550837647739739e-01
4.959106445312500000e-02 8.569335937500000000e-02 -2.910156250000000000e-01 6.654231780430843735e-01 3.428599243244795924e-01 -6.630679199111156885e-01
5.078125000000000000e-02 8.538818359375000000e-02 -2.900390625000000000e-01 6.979982093803372978e-01 3.121499662681254117e-01 -6.444849868388331515e-01
5.197143554687500000e-02 8.508300781250000000e-02 -2.890625000000000000e-01 7.339252153415983804e-01 2.879530723696167027e-01 -6.151721762227929657e-01
5.313110351562500000e-02 8.477783203125000000e-02 -2.880859375000000000e-01 7.588519556836907931e-01 2.482271560109040598e-01 -6.021021411469784645e-01
5.410766601562500000e-02 8.422851562500000000e-02 -2.858886718750000000e-01 7.331519246876614382e-01 2.062470428918088683e-01 -6.480358112212332156e-01
5.526733398437500000e-02 8.392333984375000000e-02 -2.849121093750000000e-01 7.266506969551359552e-01 1.511907071918978385e-01 -6.701642594718321133e-01
5.639648437500000000e-02 8.361816406250000000e-02 -2.839355468750000000e-01 -6.965387750428594371e-01 -9.900377274557381480e-02 7.106560263896561924e-01
5.752563476562500000e-02 8.331298828125000000e-02 -2.829589843750000000e-01 7.053144017428957246e-01 9.410661474655031278e-02 -7.026204805974599621e-01
5.865478515625000000e-02 8.300781250000000000e-02 -2.819824218750000000e-01 7.121668420800432164e-01 7.119521920678528737e-02 -6.983907429253601862e-01
5.975341796875000000e-02 8.270263671875000000e-02 -2.810058593750000000e-01 7.238608849392633715e-01 6.392826811184822329e-03 -6.899163362468734295e-01
6.088256835937500000e-02 8.245849609375000000e-02 -2.800292968750000000e-01 -6.629445121934487428e-01 9.394856643762840298e-02 7.427504564905397233e-01
6.195068359375000000e-02 8.215332031250000000e-02 -2.790527343750000000e-01 -6.164998325268051804e-01 1.480090974682658767e-01 7.733183455479707424e-01
6.304931640625000000e-02 8.184814453125000000e-02 -2.780761718750000000e-01 -5.568987529325193364e-01 2.376164086542684462e-01 7.958657055813200820e-01
6.408691406250000000e-02 8.154296875000000000e-02 -2.768554687500000000e-01 -3.791193098342434120e-01 3.745967024135393730e-01 8.461358398340712572e-01
6.542968750000000000e-02 8.154296875000000000e-02 -2.768554687500000000e-01 -3.476504926980096832e-01 4.386108983934651206e-01 8.287096082086344850e-01
6.646728515625000000e-02 8.123779296875000000e-02 -2.758789062500000000e-01 -2.946957994850390450e-01 4.707699200530634509e-01 8.315828690750584062e-01
6.774902343750000000e-02 8.123779296875000000e-02 -2.758789062500000000e-01 -2.182563249854293508e-01 5.211778343913704425e-01 8.250683859795961972e-01
6.878662109375000000e-02 8.093261718750000000e-02 -2.749023437500000000e-01 -1.754155392490160947e-01 5.329296607200244562e-01 8.277773645822990023e-01
7.006835937500000000e-02 8.093261718750000000e-02 -2.749023437500000000e-01 -1.223287952938215267e-01 5.321176567664779311e-01 8.377866465868952783e-01
7.141113281250000000e-02 8.093261718750000000e-02 -2.749023437500000000e-01 -5.796341197123550115e-02 5.252063444061536579e-01 8.489985504511639025e-01
7.269287109375000000e-02 8.093261718750000000e-02 -2.749023437500000000e-01 -1.629723171615286847e-02 5.286802075347075691e-01 8.486646206832522132e-01
7.397460937500000000e-02 8.093261718750000000e-02 -2.749023437500000000e-01 -5.147483075402567009e-04 5.566395597819845387e-01 8.307539560663544931e-01
7.525634765625000000e-02 8.093261718750000000e-02 -2.749023437500000000e-01 -4.068938121938639116e-03 5.837225914929520254e-01 8.119429659300657631e-01
7.653808593750000000e-02 8.093261718750000000e-02 -2.749023437500000000e-01 -2.359082528340503485e-02 6.115473121457043471e-01 7.908560918206374302e-01
7.781982421875000000e-02 8.093261718750000000e-02 -2.749023437500000000e-01 -3.368020027464980332e-02 6.320298822326990695e-01 7.742117746937074996e-01
7.916259765625000000e-02 8.093261718750000000e-02 -2.749023437500000000e-01 -2.563892553970414240e-02 6.419797060194804006e-01 7.662928308135936728e-01
8.044433593750000000e-02 8.093261718750000000e-02 -2.749023437500000000e-01 -2.479222566245676759e-02 6.464128757932859903e-01 7.625849064565569657e-01
8.172607421875000000e-02 8.093261718750000000e-02 -2.749023437500000000e-01 -2.015664848820797675e-02 6.506649405665699826e-01 7.590973881125033795e-01
8.300781250000000000e-02 8.093261718750000000e-02 -2.749023437500000000e-01 -1.214170236051402736e-02 6.545105365156163035e-01 7.559553800680492985e-01
8.428955078125000000e-02 8.093261718750000000e-02 -2.749023437500000000e-01 -8.409767888464357707e-04 6.577380952409587200e-01 7.532462351892879049e-01
8.557128906250000000e-02 8.093261718750000000e-02 -2.749023437500000000e-01 2.857688668545844708e-04 6.551531450552968705e-01 7.554960455623231930e-01
8.691406250000000000e-02 8.093261718750000000e-02 -2.749023437500000000e-01 -7.055404122674628631e-03 6.575376520535681779e-01 7.533886496387812715e-01
8.819580078125000000e-02 8.093261718750000000e-02 -2.749023437500000000e-01 -2.643848400641648014e-02 6.516545803069528908e-01 7.580549548208306287e-01
8.947753906250000000e-02 8.093261718750000000e-02 -2.749023437500000000e-01 -4.151090018114316632e-02 6.480874679187808018e-01 7.604337440518894597e-01
9.075927734375000000e-02 8.093261718750000000e-02 -2.749023437500000000e-01 -6.397214614893242945e-02 6.359060884907715705e-01 7.691105324577649505e-01
9.204101562500000000e-02 8.093261718750000000e-02 -2.749023437500000000e-01 -1.055189925696361219e-01 6.211504596154365787e-01 7.765551163482351527e-01
9.301757812500000000e-02 8.068847656250000000e-02 -2.739257812500000000e-01 -9.831056970514497062e-02 5.928006151620978104e-01 7.993262553849260765e-01
9.429931640625000000e-02 8.068847656250000000e-02 -2.739257812500000000e-01 -1.363249846458547687e-01 5.892275911821913681e-01 7.963832898491403078e-01
9.558105468750000000e-02 8.068847656250000000e-02 -2.739257812500000000e-01 -1.463018779341844211e-01 5.829823331756959215e-01 7.992042040166911221e-01
9.649658203125000000e-02 8.038330078125000000e-02 -2.729492187500000000e-01 -1.277564001371592761e-01 5.565653458610182458e-01 8.209222362749100110e-01
9.777832031250000000e-02 8.038330078125000000e-02 -2.729492187500000000e-01 -1.172787102632324024e-01 5.515115340851651782e-01 8.258817905063776665e-01
9.906005859375000000e-02 8.038330078125000000e-02 -2.729492187500000000e-01 8.948954760953534149e-02 -5.421620197532843743e-01 -8.354950419994602306e-01
1.003417968750000000e-01 8.038330078125000000e-02 -2.729492187500000000e-01 7.738409135900892188e-02 -5.401864086828415124e-01 -8.379799199735484816e-01
-3.062438964843750000e-02 7.965087890625000000e-02 -2.749023437500000000e-01 1.642842812756842019e-01 -6.430954223458615893e-01 -7.479565179096507865e-01
-2.934265136718750000e-02 7.965087890625000000e-02 -2.749023437500000000e-01 1.605515423509434880e-01 -6.497563125753569313e-01 -7.429939007267882811e-01
-2.793884277343750000e-02 7.934570312500000000e-02 -2.739257812500000000e-01 -1.536671697425485705e-01 6.468123470541631281e-01 7.470074890130617984e-01
-2.665710449218750000e-02 7.934570312500000000e-02 -2.739257812500000000e-01 -1.444579338519412504e-01 6.358569265247345781e-01 7.581674447889109603e-01
-2.536010742187500000e-02 7.934570312500000000e-02 -2.739257812500000000e-01 -1.460107086573150525e-01 6.440582157021790266e-01 7.509127031445893552e-01
-2.398681640625000000e-02 7.910156250000000000e-02 -2.729492187500000000e-01 -1.214717139500605808e-01 6.497598862004965170e-01 7.503710502109954827e-01
-2.270507812500000000e-02 7.910156250000000000e-02 -2.729492187500000000e-01 -1.198836297804298651e-01 6.450078327756646468e-01 7.547137278257955995e-01
-2.142333984375000000e-02 7.910156250000000000e-02 -2.729492187500000000e-01 -1.053909465280345736e-01 6.415840736494395902e-01 7.597780102301694427e-01
-2.014160156250000000e-02 7.910156250000000000e-02 -2.729492187500000000e-01 -1.056743825146071736e-01 6.384226288835143093e-01 7.623971876978685724e-01
-1.879882812500000000e-02 7.879638671875000000e-02 -2.719726562500000000e-01 -1.011635534249788471e-01 6.389717684393224628e-01 7.625490243885677533e-01
-1.751708984375000000e-02 7.879638671875000000e-02 -2.719726562500000000e-01 -7.639602780194096332e-02 6.445561706675915215e-01 7.607305632025149755e-01
-1.623535156250000000e-02 7.879638671875000000e-02 -2.719726562500000000e-01 -5.955465273220650335e-02 6.527304037933659986e-01 7.552458297148655353e-01
-1.496124267578125000e-02 7.879638671875000000e-02 -2.719726562500000000e-01 -3.878540024421185672e-02 6.527695392741248437e-01 7.565630319568510398e-01
-1.368713378906250000e-02 7.879638671875000000e-02 -2.719726562500000000e-01 -2.288650437549022768e-02 6.509988429293105394e-01 7.587336254721873674e-01
-1.240539550781250000e-02 7.879638671875000000e-02 -2.719726562500000000e-01 2.010730492570375963e-02 6.505236313854684260e-01 7.592197977514072438e-01
-1.113128662109375000e-02 7.879638671875000000e-02 -2.719726562500000000e-01 3.494796340625441061e-02 6.502440227893193647e-01 7.589211755383546976e-01
-9.849548339843750000e-03 7.879638671875000000e-02 -2.719726562500000000e-01 4.260156444949084187e-02 6.499022719605419551e-01 7.588228670822865229e-01
-8.575439453125000000e-03 7.879638671875000000e-02 -2.719726562500000000e-01 4.303395631207521804e-02 6.500182902494269221e-01 7.586990845818532003e-01
-7.301330566406250000e-03 7.879638671875000000e-02 -2.719726562500000000e-01 3.626172804674907685e-02 6.506561343122773122e-01 7.585062174833292481e-01
-6.023406982421875000e-03 7.879638671875000000e-02 -2.719726562500000000e-01 2.234541532433732478e-02 6.514639540270845686e-01 7.583504460454807417e-01
-4.745483398437500000e-03 7.879638671875000000e-02 -2.719726562500000000e-01 1.431974118085226413e-03 6.516669376749099074e-01 7.585038904261007797e-01
-3.467559814453125000e-03 7.879638671875000000e-02 -2.719726562500000000e-01 1.442756358076585643e-03 6.516631920701951852e-01 7.585070880057581677e-01
-2.189636230468750000e-03 7.879638671875000000e-02 -2.719726562500000000e-01 3.448188761827087993e-03 6.534118549550109734e-01 7.569947541420050108e-01
-9.126663208007812500e-04 7.879638671875000000e-02 -2.719726562500000000e-01 1.537796624759546309e-02 6.544573411380436578e-01 7.559425287577158370e-01
3.645420074462890625e-04 7.879638671875000000e-02 -2.719726562500000000e-01 2.346520562946105906e-02 6.552094797980829721e-01 7.550827250755326459e-01
1.642227172851562500e-03 7.879638671875000000e-02 -2.719726562500000000e-01 3.261771208774343761e-02 6.575252335108424662e-01 7.527261468520096699e-01
2.929687500000000000e-03 7.910156250000000000e-02 -2.729492187500000000e-01 4.706200374395714398e-02 6.571048707233043684e-01 7.523286227941305970e-01
4.211425781250000000e-03 7.910156250000000000e-02 -2.729492187500000000e-01 2.888445822002595406e-02 6.658491178416491296e-01 7.455270889396530265e-01
5.493164062500000000e-03 7.910156250000000000e-02 -2.729492187500000000e-01 -3.200932449387517732e-03 6.641050786650141147e-01 7.476323953138935829e-01
6.774902343750000000e-03 7.910156250000000000e-02 -2.729492187500000000e-01 -2.390935519692889352e-02 6.720607030631091661e-01 7.401099608385136586e-01
8.056640625000000000e-03 7.910156250000000000e-02 -2.729492187500000000e-01 2.867813755403938319e-02 -6.712934573420341611e-01 -7.406366575833323029e-01
9.307861328125000000e-03 7.879638671875000000e-02 -2.719726562500000000e-01 4.796485196621728953e-02 -6.769995955511705077e-01 -7.344187637849478589e-01
4.223632812500000000e-02 8.605957031250000000e-02 -2.971191406250000000e-01 6.019496558780110806e-01 3.998610021239566437e-01 -6.912074874947239378e-01
4.348754882812500000e-02 8.575439453125000000e-02 -2.961425781250000000e-01 6.179650195223560516e-01 3.696594152192080318e-01 -6.938812228231334700e-01
4.473876953125000000e-02 8.551025390625000000e-02 -2.949218750000000000e-01 6.049472830669775369e-01 3.700359026968338405e-01 -7.050618521982461306e-01
4.595947265625000000e-02 8.520507812500000000e-02 -2.939453125000000000e-01 5.826872335065788056e-01 3.471482573090776125e-01 -7.348222066294132215e-01
4.733276367187500000e-02 8.520507812500000000e-02 -2.939453125000000000e-01 5.838470727180162800e-01 3.392979350222917745e-01 -7.375632223533192811e-01
4.855346679687500000e-02 8.489990234375000000e-02 -2.929687500000000000e-01 -6.039678812698271448e-01 -3.559348729785238863e-01 7.131151131424701139e-01
4.977416992187500000e-02 8.459472656250000000e-02 -2.919921875000000000e-01 -6.452963103717874738e-01 -3.559822697576030537e-01 6.759210719002499701e-01
5.096435546875000000e-02 8.428955078125000000e-02 -2.910156250000000000e-01 7.103819686097100350e-01 3.345574981183757068e-01 -6.192162297024894624e-01
5.197143554687500000e-02 8.374023437500000000e-02 -2.890625000000000000e-01 7.414745895272691900e-01 3.227288318017957347e-01 -5.882699501157745425e-01
5.313110351562500000e-02 8.343505859375000000e-02 -2.880859375000000000e-01 7.565912706044520819e-01 3.221951342124962370e-01 -5.689990727012939065e-01
5.429077148437500000e-02 8.312988281250000000e-02 -2.871093750000000000e-01 7.700862433685279340e-01 2.818864389029398509e-01 -5.722824594002225984e-01
5.526733398437500000e-02 8.258056640625000000e-02 -2.849121093750000000e-01 7.502796178704639329e-01 2.220895411455202917e-01 -6.227011568336154879e-01
5.639648437500000000e-02 8.227539062500000000e-02 -2.839355468750000000e-01 7.253057724574739629e-01 1.787000927645800152e-01 -6.648291609773125943e-01
5.752563476562500000e-02 8.197021484375000000e-02 -2.829589843750000000e-01 7.179761104603170629e-01 1.273565864947038273e-01 -6.843176197385916204e-01
5.865478515625000000e-02 8.172607421875000000e-02 -2.819824218750000000e-01 7.483408543399990842e-01 1.018630788681991611e-01 -6.554463203719823605e-01
5.975341796875000000e-02 8.142089843750000000e-02 -2.810058593750000000e-01 7.439356320633520037e-01 5.319379609158939037e-02 -6.661307644928790017e-01
6.088256835937500000e-02 8.111572265625000000e-02 -2.800292968750000000e-01 7.285884785796308272e-01 -3.306869376765772528e-02 -6.841529729333342136e-01
6.173706054687500000e-02 8.056640625000000000e-02 -2.780761718750000000e-01 -6.773022738016684086e-01 1.464981424874387261e-01 7.209715141049747311e-01
6.280517578125000000e-02 8.026123046875000000e-02 -2.768554687500000000e-01 -6.117982629149832929e-01 2.144563899399205276e-01 7.613877739418631885e-01
6.408691406250000000e-02 8.026123046875000000e-02 -2.768554687500000000e-01 -5.281314764146761709e-01 2.810674576645386669e-01 8.012978396713964502e-01
6.518554687500000000e-02 7.995605468750000000e-02 -2.758789062500000000e-01 -4.243429576461303920e-01 3.614441562437810118e-01 8.302356148789064028e-01
6.622314453125000000e-02 7.965087890625000000e-02 -2.749023437500000000e-01 -3.640032226897335632e-01 4.275926577338412526e-01 8.274455709734618303e-01
6.750488281250000000e-02 7.965087890625000000e-02 -2.749023437500000000e-01 -2.678857636056111158e-01 4.698217195189415829e-01 8.411330272470005642e-01
6.854248046875000000e-02 7.934570312500000000e-02 -2.739257812500000000e-01 -2.216848267151116381e-01 4.882639621596928658e-01 8.440699857597170341e-01
6.982421875000000000e-02 7.934570312500000000e-02 -2.739257812500000000e-01 -1.391595063813639288e-01 5.074961441223787562e-01 8.503424577689937536e-01
7.110595703125000000e-02 7.934570312500000000e-02 -2.739257812500000000e-01 -6.864443295932899647e-02 5.213287808384980959e-01 8.505905266890393390e-01
7.238769531250000000e-02 7.934570312500000000e-02 -2.739257812500000000e-01 -3.948894531819281684e-02 5.484282404367073482e-01 8.352646815765369936e-01
7.373046875000000000e-02 7.934570312500000000e-02 -2.739257812500000000e-01 -3.682684979060207864e-02 5.697620197231468842e-01 8.209841801249891935e-01
7.501220703125000000e-02 7.934570312500000000e-02 -2.739257812500000000e-01 -4.008003849893525955e-02 5.858026745772739741e-01 8.094620540655604879e-01
7.629394531250000000e-02 7.934570312500000000e-02 -2.739257812500000000e-01 -5.170139407086990491e-02 5.968897405164143022e-01 8.006557334568811246e-01
7.757568359375000000e-02 7.934570312500000000e-02 -2.739257812500000000e-01 -5.239753762319714764e-02 6.090308708442294661e-01 7.914138591216007823e-01
7.885742187500000000e-02 7.934570312500000000e-02 -2.739257812500000000e-01 -4.509806603706160294e-02 6.152036719408482401e-01 7.870772557190393037e-01
7.983398437500000000e-02 7.910156250000000000e-02 -2.729492187500000000e-01 -3.288706774345107747e-02 6.143465767793889754e-01 7.883506354247987735e-01
8.111572265625000000e-02 7.910156250000000000e-02 -2.729492187500000000e-01 -3.455941286848122213e-02 6.165428541763741110e-01 7.865624933508055250e-01
8.239746093750000000e-02 7.910156250000000000e-02 -2.729492187500000000e-01 -3.534443425451695014e-02 6.257655659732538345e-01 7.792100021235619511e-01
8.367919921875000000e-02 7.910156250000000000e-02 -2.729492187500000000e-01 -2.663649864255621807e-02 6.338475069731704936e-01 7.729992463411343717e-01
8.496093750000000000e-02 7.910156250000000000e-02 -2.729492187500000000e-01 -9.405887613381500034e-03 6.403059015710440560e-01 7.680624204395740673e-01
8.624267578125000000e-02 7.910156250000000000e-02 -2.729492187500000000e-01 -4.943173676015531239e-03 6.475426879209023046e-01 7.620131444759873363e-01
8.752441406250000000e-02 7.910156250000000000e-02 -2.729492187500000000e-01 -2.035875605704509910e-03 6.525980188553053285e-01 7.577015777973864497e-01
8.880615234375000000e-02 7.910156250000000000e-02 -2.729492187500000000e-01 -1.485590858264644772e-02 6.511572548424953144e-01 7.587974245120826522e-01
9.008789062500000000e-02 7.910156250000000000e-02 -2.729492187500000000e-01 -1.777409224938920201e-02 6.474802287459143768e-01 7.618749471060513034e-01
9.136962890625000000e-02 7.910156250000000000e-02 -2.729492187500000000e-01 -3.921912667774660188e-02 6.386154562169917837e-01 7.685259651979224893e-01
9.265136718750000000e-02 7.910156250000000000e-02 -2.729492187500000000e-01 -7.092540581682843515e-02 6.224698135977418945e-01 7.794234522833596301e-01
9.393310546875000000e-02 7.910156250000000000e-02 -2.729492187500000000e-01 -1.099902632224847299e-01 6.028082760884800884e-01 7.902685140352508908e-01
9.521484375000000000e-02 7.910156250000000000e-02 -2.729492187500000000e-01 -1.254514262117753520e-01 5.767774634799266442e-01 8.072110611748909426e-01
9.649658203125000000e-02 7.910156250000000000e-02 -2.729492187500000000e-01 -1.039475348060676096e-01 5.574227655594496955e-01 8.236957997002267717e-01
9.741210937500000000e-02 7.879638671875000000e-02 -2.719726562500000000e-01 -9.247071743494675311e-02 5.509021924694784689e-01 8.294310946361896919e-01
9.869384765625000000e-02 7.879638671875000000e-02 -2.719726562500000000e-01 -8.002910638900836982e-02 5.324154782437431344e-01 8.426915809814780056e-01
9.997558593750000000e-02 7.879638671875000000e-02 -2.719726562500000000e-01 6.864417080452889230e-02 -5.265288753891219642e-01 -8.473814496412022113e-01
1.012573242187500000e-01 7.879638671875000000e-02 -2.719726562500000000e-01 5.596418439997960514e-02 -5.294409373979600542e-01 -8.464988504845203376e-01
-3.051757812500000000e-02 7.806396484375000000e-02 -2.739257812500000000e-01 1.666589740727324742e-01 -6.553760121217699908e-01 -7.366865473838855038e-01
-2.923583984375000000e-02 7.806396484375000000e-02 -2.739257812500000000e-01 1.575350162591209746e-01 -6.520002645532990693e-01 -7.416726863480056497e-01
-2.783203125000000000e-02 7.781982421875000000e-02 -2.729492187500000000e-01 -1.480350303637940346e-01 6.517459396905725955e-01 7.438500251274063890e-01
-2.645874023437500000e-02 7.751464843750000000e-02 -2.719726562500000000e-01 -1.566585208752137026e-01 6.606946582810157009e-01 7.341257905537185158e-01
-2.517700195312500000e-02 7.751464843750000000e-02 -2.719726562500000000e-01 -1.381129891869270487e-01 6.447444753341191603e-01 7.518173739306528436e-01
-2.391052246093750000e-02 7.751464843750000000e-02 -2.719726562500000000e-01 -1.057199509927276015e-01 6.447178992071584958e-01 7.570747138849661662e-01
-2.262878417968750000e-02 7.751464843750000000e-02 -2.719726562500000000e-01 -1.060197173822032407e-01 6.414556758043922224e-01 7.597989441322805515e-01
-2.127075195312500000e-02 7.720947265625000000e-02 -2.709960937500000000e-01 -1.171202910300288003e-01 6.487268121518504627e-01 7.519550256659894849e-01
-1.998901367187500000e-02 7.720947265625000000e-02 -2.709960937500000000e-01 -1.015805000834806432e-01 6.531662423627161429e-01 7.503700832526303266e-01
-1.872253417968750000e-02 7.720947265625000000e-02 -2.709960937500000000e-01 -1.023394961010743454e-01 6.543930290370979508e-01 7.491971643602436393e-01
-1.745605468750000000e-02 7.720947265625000000e-02 -2.709960937500000000e-01 -8.232344256003512606e-02 6.507302871844778958e-01 7.548330571363918162e-01
-1.611328125000000000e-02 7.696533203125000000e-02 -2.700195312500000000e-01 -5.855820755614597056e-02 6.318672885518898941e-01 7.728613497813784372e-01
-1.485443115234375000e-02 7.696533203125000000e-02 -2.700195312500000000e-01 -2.816531888827479915e-02 6.321274255527605801e-01 7.743523956674771558e-01
-1.358795166015625000e-02 7.696533203125000000e-02 -2.700195312500000000e-01 -1.618533181513290634e-02 6.308833560277949948e-01 7.757088539659326987e-01
-1.231384277343750000e-02 7.696533203125000000e-02 -2.700195312500000000e-01 1.263403292834235428e-02 6.305352926634847366e-01 7.760577465097163730e-01
-1.104736328125000000e-02 7.696533203125000000e-02 -2.700195312500000000e-01 2.793145779897496933e-02 6.334572499094230924e-01 7.732733968024599891e-01
-9.780883789062500000e-03 7.696533203125000000e-02 -2.700195312500000000e-01 3.829634626831560085e-02 6.383193841793358692e-01 7.688184139596362376e-01
-8.544921875000000000e-03 7.720947265625000000e-02 -2.709960937500000000e-01 4.446605872482458505e-02 6.515893931859011445e-01 7.572674773876860721e-01
-7.270812988281250000e-03 7.720947265625000000e-02 -2.709960937500000000e-01 3.776397271067720440e-02 6.593990861937536474e-01 7.508440100926089267e-01
-6.000518798828125000e-03 7.720947265625000000e-02 -2.709960937500000000e-01 2.628772159548545956e-02 6.641935418910495104e-01 7.470983165578282126e-01
-4.726409912109375000e-03 7.720947265625000000e-02 -2.709960937500000000e-01 1.520192918778026474e-02 6.641945776297751847e-01 7.474051541140015464e-01
-3.454208374023437500e-03 7.720947265625000000e-02 -2.709960937500000000e-01 5.426992375866147725e-04 6.639564709592447045e-01 7.477710278881384287e-01
-2.182006835937500000e-03 7.720947265625000000e-02 -2.709960937500000000e-01 5.504455374777543529e-04 6.639548831674290108e-01 7.477724320458971619e-01
-9.093284606933593750e-04 7.720947265625000000e-02 -2.709960937500000000e-01 1.007354435272041736e-02 6.677916971873282259e-01 7.442800365936477203e-01
3.631114959716796875e-04 7.720947265625000000e-02 -2.709960937500000000e-01 1.713116407220086762e-02 6.726101539055546752e-01 7.397986915916229256e-01
1.635551452636718750e-03 7.720947265625000000e-02 -2.709960937500000000e-01 2.078827443589537430e-02 6.763061309569606827e-01 7.363272810890576503e-01
2.908706665039062500e-03 7.720947265625000000e-02 -2.709960937500000000e-01 2.112944012420773371e-02 6.798169120842606494e-01 7.330774262001648056e-01
4.180908203125000000e-03 7.720947265625000000e-02 -2.709960937500000000e-01 1.824198191675354547e-02 6.831892647873678559e-01 7.300134646532517868e-01
5.455017089843750000e-03 7.720947265625000000e-02 -2.709960937500000000e-01 7.479256719651418200e-04 6.824805104725666371e-01 7.309034090988317800e-01
6.725311279296875000e-03 7.720947265625000000e-02 -2.709960937500000000e-01 -4.521118472918772037e-03 6.809046220537914307e-01 7.323581467789768151e-01
7.995605468750000000e-03 7.720947265625000000e-02 -2.709960937500000000e-01 4.592902881808522131e-02 -6.758486758924223681e-01 -7.356079741317971266e-01
9.269714355468750000e-03 7.720947265625000000e-02 -2.709960937500000000e-01 4.946494330265747974e-02 -6.759148626815028038e-01 -7.353178345384463466e-01
4.611206054687500000e-02 8.410644531250000000e-02 -2.949218750000000000e-01 5.971888258949229478e-01 3.371218549571680656e-01 -7.278147849119869228e-01
4.733276367187500000e-02 8.380126953125000000e-02 -2.939453125000000000e-01 5.876210149947846961e-01 3.330528042581295534e-01 -7.374126201200351671e-01
4.855346679687500000e-02 8.349609375000000000e-02 -2.929687500000000000e-01 6.184272220787823127e-01 3.583336380049013115e-01 -6.993888581226417323e-01
4.977416992187500000e-02 8.325195312500000000e-02 -2.919921875000000000e-01 6.510193984797798539e-01 3.382588206877271131e-01 -6.795253586364331522e-01
5.096435546875000000e-02 8.294677734375000000e-02 -2.910156250000000000e-01 6.779495987258632450e-01 3.508910259719555391e-01 -6.459565229021141386e-01
5.215454101562500000e-02 8.264160156250000000e-02 -2.900390625000000000e-01 7.158420641937970341e-01 3.766196236639939854e-01 -5.879862227994421264e-01
5.331420898437500000e-02 8.239746093750000000e-02 -2.890625000000000000e-01 7.539790681464851874e-01 3.510415274967927379e-01 -5.552345547331114517e-01
5.429077148437500000e-02 8.178710937500000000e-02 -2.871093750000000000e-01 7.768164391781419154e-01 3.260264457946244754e-01 -5.387605929029301022e-01
5.545043945312500000e-02 8.154296875000000000e-02 -2.858886718750000000e-01 7.777834918947870158e-01 2.799692803892875892e-01 -5.627344327249367284e-01
5.661010742187500000e-02 8.123779296875000000e-02 -2.849121093750000000e-01 7.545972850845956703e-01 2.245955075782031796e-01 -6.165547788466544388e-01
5.752563476562500000e-02 8.068847656250000000e-02 -2.829589843750000000e-01 7.282986707621920131e-01 1.637768563849780756e-01 -6.654007720755052979e-01
5.865478515625000000e-02 8.038330078125000000e-02 -2.819824218750000000e-01 7.581224182559319624e-01 1.488618078187698146e-01 -6.348941337819287156e-01
5.975341796875000000e-02 8.007812500000000000e-02 -2.810058593750000000e-01 7.804295111871346613e-01 9.987492158217142757e-02 -6.172153417626339289e-01
6.088256835937500000e-02 7.983398437500000000e-02 -2.800292968750000000e-01 7.988859537359480623e-01 1.425569759852536589e-02 -6.013135687886845826e-01
6.173706054687500000e-02 7.922363281250000000e-02 -2.780761718750000000e-01 7.202895419845674052e-01 -1.007705008616561621e-01 -6.863150019224070197e-01
6.280517578125000000e-02 7.891845703125000000e-02 -2.768554687500000000e-01 -6.714275819341849472e-01 2.136243530730492501e-01 7.096123152765420050e-01
6.384277343750000000e-02 7.867431640625000000e-02 -2.758789062500000000e-01 -5.648339849129043744e-01 2.781814330627608300e-01 7.769026063713247998e-01
6.494140625000000000e-02 7.836914062500000000e-02 -2.749023437500000000e-01 -4.919239050143592862e-01 3.399309523709315717e-01 8.015346650617271029e-01
6.622314453125000000e-02 7.836914062500000000e-02 -2.749023437500000000e-01 -4.200668177390423641e-01 3.943479029075179221e-01 8.173332246440475624e-01
6.726074218750000000e-02 7.806396484375000000e-02 -2.739257812500000000e-01 -3.368945997501481271e-01 4.404948182998124073e-01 8.321456265042812550e-01
6.854248046875000000e-02 7.806396484375000000e-02 -2.739257812500000000e-01 -2.340884782969341882e-01 4.928214184813776710e-01 8.380510926039226316e-01
6.958007812500000000e-02 7.781982421875000000e-02 -2.729492187500000000e-01 -1.717450170515831542e-01 5.054607214301232165e-01 8.455844772755058969e-01
7.086181640625000000e-02 7.781982421875000000e-02 -2.729492187500000000e-01 -1.154063321426999217e-01 5.244313485416249865e-01 8.435953645961916658e-01
7.214355468750000000e-02 7.781982421875000000e-02 -2.729492187500000000e-01 -7.741861766796517830e-02 5.695010592357232504e-01 8.183366673733803998e-01
7.342529296875000000e-02 7.781982421875000000e-02 -2.729492187500000000e-01 -6.584150135836520923e-02 5.891665296573249666e-01 8.053245911000239676e-01
7.470703125000000000e-02 7.781982421875000000e-02 -2.729492187500000000e-01 -6.478323390055905351e-02 6.010490295901058655e-01 7.965821970356715687e-01
7.574462890625000000e-02 7.751464843750000000e-02 -2.719726562500000000e-01 -6.136205324500913771e-02 6.060620621162841060e-01 7.930469565447647584e-01
7.696533203125000000e-02 7.751464843750000000e-02 -2.719726562500000000e-01 -6.502060972694505281e-02 6.068912876258873990e-01 7.921207517257257136e-01
7.824707031250000000e-02 7.751464843750000000e-02 -2.719726562500000000e-01 -5.938419576846220432e-02 6.149500016703965954e-01 7.863269121291170949e-01
7.952880859375000000e-02 7.751464843750000000e-02 -2.719726562500000000e-01 -5.328810702786668241e-02 6.186249058728376937e-01 7.838772885364198029e-01
8.081054687500000000e-02 7.751464843750000000e-02 -2.719726562500000000e-01 -5.389498081224178977e-02 6.299762707003229156e-01 7.747420405514092723e-01
8.209228515625000000e-02 7.751464843750000000e-02 -2.719726562500000000e-01 -4.850992603516830759e-02 6.375867427192208892e-01 7.688497464295325212e-01
8.337402343750000000e-02 7.751464843750000000e-02 -2.719726562500000000e-01 -2.494126203876561795e-02 6.413850064700699072e-01 7.668136715808488990e-01
8.465576171875000000e-02 7.751464843750000000e-02 -2.719726562500000000e-01 -2.345847289754331502e-02 6.457792182891276545e-01 7.631637447331984792e-01
8.593750000000000000e-02 7.751464843750000000e-02 -2.719726562500000000e-01 -1.776614037513217850e-02 6.497234973872765273e-01 7.599629867296279206e-01
8.721923828125000000e-02 7.751464843750000000e-02 -2.719726562500000000e-01 -8.119058280236955347e-03 6.530507772994473825e-01 7.572706010147427502e-01
8.850097656250000000e-02 7.751464843750000000e-02 -2.719726562500000000e-01 -1.933024219738615091e-03 6.550083186848049133e-01 7.556191936889049554e-01
8.978271484375000000e-02 7.751464843750000000e-02 -2.719726562500000000e-01 -1.374254741682901480e-02 6.506649255759858752e-01 7.592406054839880847e-01
9.106445312500000000e-02 7.751464843750000000e-02 -2.719726562500000000e-01 -9.317344061840801550e-03 6.427586078372894418e-01 7.660121142323420562e-01
9.234619140625000000e-02 7.751464843750000000e-02 -2.719726562500000000e-01 -2.551350941854443541e-02 6.365271470566513656e-01 7.708321814098513247e-01
9.362792968750000000e-02 7.751464843750000000e-02 -2.719726562500000000e-01 -5.533302413360066674e-02 6.200646103727159852e-01 7.825970453583136477e-01
9.490966796875000000e-02 7.751464843750000000e-02 -2.719726562500000000e-01 -6.984101000749710908e-02 5.975752039409548688e-01 7.987653653959082556e-01
9.613037109375000000e-02 7.751464843750000000e-02 -2.719726562500000000e-01 -8.087423688271334898e-02 5.784792143083029581e-01 8.116779881343877401e-01
9.710693359375000000e-02 7.720947265625000000e-02 -2.709960937500000000e-01 -6.331697386918090642e-02 5.707816156549252451e-01 8.186570149033125521e-01
9.832763671875000000e-02 7.720947265625000000e-02 -2.709960937500000000e-01 -5.909217478844907417e-02 5.508246704345016731e-01 8.325264544262206412e-01
9.960937500000000000e-02 7.720947265625000000e-02 -2.709960937500000000e-01 -3.724418484670451862e-02 5.418332788901449870e-01 8.396603888372125013e-01
1.008911132812500000e-01 7.720947265625000000e-02 -2.709960937500000000e-01 4.607666039175764561e-02 -5.559655942067862622e-01 -8.299272253790918041e-01
1.021728515625000000e-01 7.720947265625000000e-02 -2.709960937500000000e-01 5.204289098077566345e-02 -5.529080619333976987e-01 -8.316154234665308342e-01
1.034545898437500000e-01 7.720947265625000000e-02 -2.709960937500000000e-01 5.169896525770695250e-02 -5.577082746040475936e-01 -8.284254326307578520e-01
-3.041076660156250000e-02 7.653808593750000000e-02 -2.729492187500000000e-01 1.501932383524314518e-01 -6.602278389444456996e-01 -7.358948238953423315e-01
-2.900695800781250000e-02 7.623291015625000000e-02 -2.719726562500000000e-01 1.442427081934014033e-01 -6.634644003933766188e-01 -7.341723438973239979e-01
-2.763366699218750000e-02 7.592773437500000000e-02 -2.709960937500000000e-01 1.315321097269360751e-01 -6.708957089239433458e-01 -7.297932939252187445e-01
-2.636718750000000000e-02 7.592773437500000000e-02 -2.709960937500000000e-01 -1.319861108813495665e-01 6.683365843825760377e-01 7.320559244417381706e-01
-2.508544921875000000e-02 7.592773437500000000e-02 -2.709960937500000000e-01 -1.021985876847059799e-01 6.545847631996486449e-01 7.490488878985879229e-01
-2.372741699218750000e-02 7.568359375000000000e-02 -2.700195312500000000e-01 -1.045881011116833181e-01 6.563058954576870274e-01 7.472107471746749496e-01
-2.246093750000000000e-02 7.568359375000000000e-02 -2.700195312500000000e-01 -1.139659214919528790e-01 6.540784072830880813e-01 7.477922210510810075e-01
-2.119445800781250000e-02 7.568359375000000000e-02 -2.700195312500000000e-01 -1.148210313218425566e-01 6.573665857591822759e-01 7.447719803359309498e-01
-1.992797851562500000e-02 7.568359375000000000e-02 -2.700195312500000000e-01 -1.023042721432332325e-01 6.573777252234742630e-01 7.465844642645957929e-01
-1.858520507812500000e-02 7.537841796875000000e-02 -2.690429687500000000e-01 -8.197113834456232206e-02 6.502322042358353871e-01 7.553004786527699466e-01
-1.731872558593750000e-02 7.537841796875000000e-02 -2.690429687500000000e-01 -5.490180158904633956e-02 6.524296363380598374e-01 7.558580301948666369e-01
-1.605224609375000000e-02 7.537841796875000000e-02 -2.690429687500000000e-01 -4.222007828500821264e-02 6.561731600735905001e-01 7.534283303597270054e-01
-1.480102539062500000e-02 7.537841796875000000e-02 -2.690429687500000000e-01 -1.771268633515527338e-02 6.585065219350692001e-01 7.523665471774849678e-01
-1.353454589843750000e-02 7.537841796875000000e-02 -2.690429687500000000e-01 -1.070697358723507985e-02 6.508317923044787401e-01 7.591464541459324034e-01
-1.226806640625000000e-02 7.537841796875000000e-02 -2.690429687500000000e-01 1.193096114148381806e-02 6.503646369905909941e-01 7.595284662988853741e-01
-1.100921630859375000e-02 7.537841796875000000e-02 -2.690429687500000000e-01 1.874061582895425807e-02 6.546479157852279629e-01 7.557015916857716675e-01
-9.742736816406250000e-03 7.537841796875000000e-02 -2.690429687500000000e-01 2.172791256362481896e-02 6.588254424540521681e-01 7.519820039009242896e-01
-8.483886718750000000e-03 7.537841796875000000e-02 -2.690429687500000000e-01 2.099953298153331080e-02 6.630145734025545412e-01 7.483118969189159753e-01
-7.217407226562500000e-03 7.537841796875000000e-02 -2.690429687500000000e-01 1.663287998495519698e-02 6.672192979962096038e-01 7.446756043304033623e-01
-5.954742431640625000e-03 7.537841796875000000e-02 -2.690429687500000000e-01 8.731908916589280201e-03 6.713353955399690154e-01 7.411022469685715208e-01
-4.692077636718750000e-03 7.537841796875000000e-02 -2.690429687500000000e-01 -2.581050297392863905e-03 6.751681608565931469e-01 7.376593338017812806e-01
-3.429412841796875000e-03 7.537841796875000000e-02 -2.690429687500000000e-01 -2.575109152690845116e-03 6.751740038907729780e-01 7.376540064847164624e-01
-2.164840698242187500e-03 7.537841796875000000e-02 -2.690429687500000000e-01 4.547979950880081876e-03 6.732570507436674845e-01 7.393945222290363439e-01
-9.026527404785156250e-04 7.537841796875000000e-02 -2.690429687500000000e-01 7.189169099658766944e-03 6.657710095542290762e-01 7.461214905662475472e-01
3.604888916015625000e-04 7.537841796875000000e-02 -2.690429687500000000e-01 6.497561279066397383e-03 6.574508032420957049e-01 7.534694572534097468e-01
1.623153686523437500e-03 7.537841796875000000e-02 -2.690429687500000000e-01 -8.600495364515778124e-04 6.571687641813743763e-01 7.537429772137977935e-01
2.885818481445312500e-03 7.537841796875000000e-02 -2.690429687500000000e-01 -3.631286840928337552e-04 6.565216672951988963e-01 7.543070783901546505e-01
4.150390625000000000e-03 7.537841796875000000e-02 -2.690429687500000000e-01 -8.173393316199473874e-03 6.646940503155451818e-01 7.470709572167920642e-01
5.413055419921875000e-03 7.537841796875000000e-02 -2.690429687500000000e-01 -1.977265618115158982e-02 6.872523445256304431e-01 7.261496106255006522e-01
6.675720214843750000e-03 7.537841796875000000e-02 -2.690429687500000000e-01 -2.528780195343771284e-02 6.934080726458141664e-01 7.201012233443164767e-01
7.934570312500000000e-03 7.537841796875000000e-02 -2.690429687500000000e-01 -3.875567633963619696e-02 6.987670827532470597e-01 7.142986501541033206e-01
9.201049804687500000e-03 7.537841796875000000e-02 -2.690429687500000000e-01 4.517017055948002735e-02 -6.937191787133506482e-01 -7.188277657247955643e-01
4.733276367187500000e-02 8.245849609375000000e-02 -2.939453125000000000e-01 5.934160805620893875e-01 3.397930179928458361e-01 -7.296561246598570749e-01
4.873657226562500000e-02 8.245849609375000000e-02 -2.939453125000000000e-01 6.160926858278029661e-01 3.369388267583817709e-01 -7.119705257187047831e-01
4.992675781250000000e-02 8.215332031250000000e-02 -2.929687500000000000e-01 6.472908346960368764e-01 3.202831500365054818e-01 -6.916887154791530046e-01
5.114746093750000000e-02 8.184814453125000000e-02 -2.919921875000000000e-01 6.759923416980304633e-01 3.571102061839728781e-01 -6.445980566250987254e-01
5.233764648437500000e-02 8.160400390625000000e-02 -2.910156250000000000e-01 7.150758473836447138e-01 3.548659783405444523e-01 -6.022762405283562659e-01
5.331420898437500000e-02 8.099365234375000000e-02 -2.890625000000000000e-01 7.523989970309061803e-01 3.727201732312671045e-01 -5.431163979602720016e-01
5.450439453125000000e-02 8.074951171875000000e-02 -2.880859375000000000e-01 7.658206265976469362e-01 3.804996175502917133e-01 -5.184002400864311522e-01
5.566406250000000000e-02 8.044433593750000000e-02 -2.871093750000000000e-01 7.885692703275616333e-01 3.599999452404303857e-01 -4.985564615185970605e-01
5.661010742187500000e-02 7.989501953125000000e-02 -2.849121093750000000e-01 7.772282115475325215e-01 3.232380115640312579e-01 -5.398458067399943827e-01
5.773925781250000000e-02 7.958984375000000000e-02 -2.839355468750000000e-01 7.829470667036202425e-01 2.932607736837566370e-01 -5.486273866283027933e-01
5.886840820312500000e-02 7.934570312500000000e-02 -2.829589843750000000e-01 7.627850421778737955e-01 2.306538853506465425e-01 -6.041173434046982482e-01
5.975341796875000000e-02 7.879638671875000000e-02 -2.810058593750000000e-01 8.083354438672389897e-01 1.473900462017758983e-01 -5.699736699783527483e-01
6.088256835937500000e-02 7.849121093750000000e-02 -2.800292968750000000e-01 8.360146772155220285e-01 6.292501877952834388e-02 -5.450870586354279457e-01
6.173706054687500000e-02 7.794189453125000000e-02 -2.780761718750000000e-01 8.241847495732596007e-01 -4.228845749721747704e-02 -5.647399268100046221e-01
6.280517578125000000e-02 7.763671875000000000e-02 -2.768554687500000000e-01 7.470904926724902806e-01 -1.279725151144621709e-01 -6.522873838528955304e-01
6.384277343750000000e-02 7.739257812500000000e-02 -2.758789062500000000e-01 -6.337102117770503362e-01 2.151960283611201175e-01 7.430356901704561201e-01
6.494140625000000000e-02 7.708740234375000000e-02 -2.749023437500000000e-01 -5.505988244048973801e-01 2.715256859878592000e-01 7.893761691441967265e-01
6.597900390625000000e-02 7.678222656250000000e-02 -2.739257812500000000e-01 -5.008450325873931019e-01 3.353501140859986296e-01 7.979314220627239385e-01
6.701660156250000000e-02 7.653808593750000000e-02 -2.729492187500000000e-01 -4.032691485355637262e-01 4.060352623278594142e-01 8.200666799631282089e-01
6.829833984375000000e-02 7.653808593750000000e-02 -2.729492187500000000e-01 -2.801154757988485455e-01 4.692894119955584586e-01 8.374382174267231971e-01
6.933593750000000000e-02 7.623291015625000000e-02 -2.719726562500000000e-01 -2.371518683010098161e-01 4.898097744503883688e-01 8.389549309791319853e-01
7.061767578125000000e-02 7.623291015625000000e-02 -2.719726562500000000e-01 -1.755467994035567192e-01 5.267338065794903157e-01 8.317059686123742246e-01
7.189941406250000000e-02 7.623291015625000000e-02 -2.719726562500000000e-01 -1.451714986103821159e-01 5.684141096314337949e-01 8.098337088335605394e-01
7.318115234375000000e-02 7.623291015625000000e-02 -2.719726562500000000e-01 -1.008501028126323751e-01 5.844678892763588429e-01 8.051251723598756849e-01
7.415771484375000000e-02 7.592773437500000000e-02 -2.709960937500000000e-01 -9.328655171233894705e-02 5.856176530693314453e-01 8.052015795334663828e-01
7.543945312500000000e-02 7.592773437500000000e-02 -2.709960937500000000e-01 -7.355497878759255370e-02 5.981995861337011666e-01 7.979642349410311919e-01
7.672119140625000000e-02 7.592773437500000000e-02 -2.709960937500000000e-01 -7.429517681511792204e-02 6.111484990433861952e-01 7.880214075893030579e-01
7.800292968750000000e-02 7.592773437500000000e-02 -2.709960937500000000e-01 -6.429109544869249238e-02 6.133971920234222441e-01 7.871534411179232915e-01
7.928466796875000000e-02 7.592773437500000000e-02 -2.709960937500000000e-01 -5.626130853349618072e-02 6.168166149653717678e-01 7.850935795589969457e-01
8.050537109375000000e-02 7.592773437500000000e-02 -2.709960937500000000e-01 -6.554888778814595141e-02 6.219033759965104657e-01 7.803457786352661074e-01
8.178710937500000000e-02 7.592773437500000000e-02 -2.709960937500000000e-01 -5.464531368233294800e-02 6.237448205571916038e-01 7.797155176861856329e-01
8.306884765625000000e-02 7.592773437500000000e-02 -2.709960937500000000e-01 -4.692283945419856162e-02 6.295914091624379427e-01 7.755081589812006237e-01
8.404541015625000000e-02 7.568359375000000000e-02 -2.700195312500000000e-01 -3.353928718789800367e-02 6.345844119814789686e-01 7.721254692632849581e-01
8.532714843750000000e-02 7.568359375000000000e-02 -2.700195312500000000e-01 -3.038979588361500825e-02 6.336635456863245475e-01 7.730116242168596496e-01
8.654785156250000000e-02 7.568359375000000000e-02 -2.700195312500000000e-01 -2.273254549185587531e-02 6.328881033061175554e-01 7.739094779553005177e-01
8.782958984375000000e-02 7.568359375000000000e-02 -2.700195312500000000e-01 -1.068693259268838590e-02 6.319987579608743467e-01 7.748957087296789448e-01
8.911132812500000000e-02 7.568359375000000000e-02 -2.700195312500000000e-01 -6.636754110561950137e-04 6.296512060622742046e-01 7.768776726353205930e-01
9.039306640625000000e-02 7.568359375000000000e-02 -2.700195312500000000e-01 -5.797494741528591827e-04 6.296492771409916145e-01 7.768793031651530789e-01
9.167480468750000000e-02 7.568359375000000000e-02 -2.700195312500000000e-01 -5.717862768061514767e-04 6.296502333858904343e-01 7.768785340434805065e-01
9.289550781250000000e-02 7.568359375000000000e-02 -2.700195312500000000e-01 -9.301490890952541710e-03 6.282867736299200256e-01 7.779262255181471630e-01
9.417724609375000000e-02 7.568359375000000000e-02 -2.700195312500000000e-01 -2.843071891567773568e-02 6.170301314092787592e-01 7.864257823564700933e-01
9.545898437500000000e-02 7.568359375000000000e-02 -2.700195312500000000e-01 -3.148147818281314680e-02 6.115481758233693999e-01 7.905806379987649901e-01
9.674072265625000000e-02 7.568359375000000000e-02 -2.700195312500000000e-01 -3.547054487249452770e-02 5.966167904096997265e-01 8.017420070369749574e-01
9.796142578125000000e-02 7.568359375000000000e-02 -2.700195312500000000e-01 -3.022414019116461889e-02 5.797150260291332735e-01 8.142585522705586554e-01
9.924316406250000000e-02 7.568359375000000000e-02 -2.700195312500000000e-01 -1.535136644150313610e-02 5.602744653505576933e-01 8.281647535512034475e-01
1.005249023437500000e-01 7.568359375000000000e-02 -2.700195312500000000e-01 -3.277904415106407121e-02 5.670900218362122658e-01 8.230033058246770672e-01
1.018066406250000000e-01 7.568359375000000000e-02 -2.700195312500000000e-01 3.733689355682694166e-02 -5.634189154163075086e-01 -8.253272575958204849e-01
1.030883789062500000e-01 7.568359375000000000e-02 -2.700195312500000000e-01 4.825242895887761618e-02 -5.801653188092552593e-01 -8.130682049806915446e-01
-2.868652343750000000e-02 7.415771484375000000e-02 -2.690429687500000000e-01 1.630476701266295458e-01 -6.346513578962439395e-01 -7.554026152898407620e-01
-2.752685546875000000e-02 7.440185546875000000e-02 -2.700195312500000000e-01 1.233965688317608667e-01 -6.654173718963460882e-01 -7.362017440750248110e-01
-2.616882324218750000e-02 7.415771484375000000e-02 -2.690429687500000000e-01 -1.094504507756807743e-01 6.496318061136621136e-01 7.523291269853252805e-01
-2.490234375000000000e-02 7.415771484375000000e-02 -2.690429687500000000e-01 -9.812095847481473732e-02 6.516356487785996965e-01 7.521590647920672890e-01
-2.363586425781250000e-02 7.415771484375000000e-02 -2.690429687500000000e-01 -1.055241526138686603e-01 6.541534386256093736e-01 7.489645732272095513e-01
-2.236938476562500000e-02 7.415771484375000000e-02 -2.690429687500000000e-01 -1.172481339346366919e-01 6.509775799263479712e-01 7.499873769084920427e-01
-2.102661132812500000e-02 7.385253906250000000e-02 -2.678222656250000000e-01 -1.134341311752190551e-01 6.427564502680451763e-01 7.576257938608907949e-01
-1.977539062500000000e-02 7.385253906250000000e-02 -2.678222656250000000e-01 -9.633693129542120204e-02 6.496459462232053728e-01 7.541083080197018562e-01
-1.850891113281250000e-02 7.385253906250000000e-02 -2.678222656250000000e-01 -8.158122565825157158e-02 6.571337377613022390e-01 7.493462179233025822e-01
-1.725769042968750000e-02 7.385253906250000000e-02 -2.678222656250000000e-01 -5.999324480606797738e-02 6.573799194574719840e-01 7.511673928437835324e-01
