-3.729248046875000000e-02 4.156494140625000000e-02 -2.288818359375000000e-01 -5.576621725563989385e-01 -5.499574666702671255e-01 6.217392428931111104e-01
-3.573608398437500000e-02 4.101562500000000000e-02 -2.258300781250000000e-01 -5.642859989379488406e-01 -7.009435750227009931e-01 4.361873634540511802e-01
-3.439331054687500000e-02 4.064941406250000000e-02 -2.237548828125000000e-01 -4.047540289923493573e-01 -6.749376912966235098e-01 6.169548515747680373e-01
-3.317260742187500000e-02 4.046630859375000000e-02 -2.227783203125000000e-01 -3.588281131793426004e-01 -5.589227979381766742e-01 7.475611621379971705e-01
-3.213500976562500000e-02 4.046630859375000000e-02 -2.227783203125000000e-01 -3.835371411689507681e-01 -6.310820946479652749e-01 6.742660091971752756e-01
-3.356933593750000000e-02 4.522705078125000000e-02 -2.489013671875000000e-01 -1.089630356178303977e-01 -2.885519770141658016e-02 -9.936269090732998688e-01
-3.237915039062500000e-02 4.522705078125000000e-02 -2.489013671875000000e-01 3.880641773831069313e-02 6.758762041459463743e-02 9.969583619735643554e-01
-3.123474121093750000e-02 4.522705078125000000e-02 -2.489013671875000000e-01 -3.786492486661770934e-02 1.057224084736850811e-01 9.936745039555803238e-01
-3.005981445312500000e-02 4.522705078125000000e-02 -2.489013671875000000e-01 -7.767741146333410895e-02 9.005826932257778028e-02 9.929026779473293374e-01
-2.888488769531250000e-02 4.522705078125000000e-02 -2.489013671875000000e-01 -1.318579523852621838e-01 1.559629633009355365e-01 9.789223842936461972e-01
-2.772521972656250000e-02 4.522705078125000000e-02 -2.489013671875000000e-01 -1.850302983181608130e-01 2.433619318604403614e-01 9.521232897190607947e-01
-2.644348144531250000e-02 4.504394531250000000e-02 -2.479248046875000000e-01 -2.172498977040112078e-01 2.988364085288954808e-01 9.292466211319511116e-01
-2.528381347656250000e-02 4.504394531250000000e-02 -2.479248046875000000e-01 -2.095540829445030062e-01 3.297234185088006031e-01 9.205267804948200627e-01
-2.410888671875000000e-02 4.504394531250000000e-02 -2.479248046875000000e-01 -1.745814094516066062e-01 3.761169449393667041e-01 9.099765794806853325e-01
-2.285766601562500000e-02 4.486083984375000000e-02 -2.469482421875000000e-01 -1.773574919181588883e-01 4.058464458326258573e-01 8.965673329234820077e-01
-2.169799804687500000e-02 4.486083984375000000e-02 -2.469482421875000000e-01 -1.511346605190466430e-01 4.176596798348934381e-01 8.959457049565039410e-01
-2.053833007812500000e-02 4.486083984375000000e-02 -2.469482421875000000e-01 -1.677945090579706644e-01 4.074107840345382314e-01 8.976978644189577139e-01
-1.937866210937500000e-02 4.486083984375000000e-02 -2.469482421875000000e-01 -1.931919396984989878e-01 4.003861859145894098e-01 8.957498403931197783e-01
-1.821899414062500000e-02 4.486083984375000000e-02 -2.469482421875000000e-01 -2.331436801713306917e-01 3.815559273468745460e-01 8.944602275689148563e-01
-1.698303222656250000e-02 4.467773437500000000e-02 -2.458496093750000000e-01 -2.348706316300875896e-01 3.074241970009869984e-01 9.221313081638546905e-01
-1.583862304687500000e-02 4.467773437500000000e-02 -2.458496093750000000e-01 -2.764784424063734813e-01 2.476365968744433932e-01 9.285665225351331653e-01
-1.467895507812500000e-02 4.467773437500000000e-02 -2.458496093750000000e-01 -3.756323795004092303e-01 1.716885381585661341e-01 9.107268313472679511e-01
-1.347351074218750000e-02 4.449462890625000000e-02 -2.448730468750000000e-01 -3.669042882901746294e-01 7.453682475918485539e-02 9.272677633721011503e-01
-1.232147216796875000e-02 4.449462890625000000e-02 -2.448730468750000000e-01 -4.069817522837989032e-01 -2.006401831363972994e-03 9.134340850108998433e-01
-1.112365722656250000e-02 4.431152343750000000e-02 -2.438964843750000000e-01 -4.207189640969893341e-01 -1.583192478542483003e-02 9.070528669304478431e-01
-9.979248046875000000e-03 4.431152343750000000e-02 -2.438964843750000000e-01 -4.079944752222163795e-01 -1.430596174702244150e-01 9.017064123302115375e-01
-8.796691894531250000e-03 4.412841796875000000e-02 -2.429199218750000000e-01 -4.374819964013806350e-01 -2.161492216037348979e-01 8.728625417697575273e-01
-7.629394531250000000e-03 4.394531250000000000e-02 -2.419433593750000000e-01 -4.585091608084901349e-01 -2.728257784641462402e-01 8.457750552363949570e-01
-6.465911865234375000e-03 4.376220703125000000e-02 -2.408447265625000000e-01 -5.910766143887397073e-01 -4.445629140169760074e-01 6.730469904869049724e-01
-4.096984863281250000e-03 4.266357421875000000e-02 -2.348632812500000000e-01 7.688520676086793015e-01 4.586838640328902983e-01 -4.455060168052903391e-01
-2.981185913085937500e-03 4.248046875000000000e-02 -2.338867187500000000e-01 7.035942027766859397e-01 4.180184119787260788e-01 -5.746440681550829543e-01
-1.874923706054687500e-03 4.229736328125000000e-02 -2.327880859375000000e-01 6.275490710687816609e-01 4.694807937227601924e-01 -6.211038139684511572e-01
-7.781982421875000000e-04 4.211425781250000000e-02 -2.318115234375000000e-01 -6.003730833248718257e-01 -4.601855989612695375e-01 6.540499792276154301e-01
3.092288970947265625e-04 4.193115234375000000e-02 -2.308349609375000000e-01 -5.907001907963840281e-01 -4.721305271949632898e-01 6.543439843719216498e-01
1.387596130371093750e-03 4.174804687500000000e-02 -2.298583984375000000e-01 6.340532756721143359e-01 4.914874529125250469e-01 -5.970063041869995146e-01
2.454757690429687500e-03 4.156494140625000000e-02 -2.288818359375000000e-01 6.387035240744236564e-01 4.950247483662653103e-01 -5.890741098026868183e-01
3.515243530273437500e-03 4.138183593750000000e-02 -2.277832031250000000e-01 6.526557925245036751e-01 4.616665530175797505e-01 -6.007532024958988082e-01
4.562377929687500000e-03 4.119873046875000000e-02 -2.268066406250000000e-01 6.606459052590837322e-01 3.969301890028454904e-01 -6.371761239426435575e-01
5.603790283203125000e-03 4.101562500000000000e-02 -2.258300781250000000e-01 -6.594527440096557003e-01 -3.370199624807319605e-01 6.719669808164844271e-01
6.637573242187500000e-03 4.083251953125000000e-02 -2.248535156250000000e-01 -6.511753422666033408e-01 -2.841043215161759838e-01 7.037438512127871526e-01
7.690429687500000000e-03 4.083251953125000000e-02 -2.248535156250000000e-01 -6.236602143695282319e-01 -2.209599168062376107e-01 7.498164123153978622e-01
8.705139160156250000e-03 4.064941406250000000e-02 -2.237548828125000000e-01 -6.626762044250574801e-01 -1.331662081849151469e-01 7.369715117197214171e-01
9.712219238281250000e-03 4.046630859375000000e-02 -2.227783203125000000e-01 -6.103640293871936962e-01 -9.737350253501246555e-02 7.861133204788561812e-01
1.071166992187500000e-02 4.028320312500000000e-02 -2.218017578125000000e-01 5.707647334268313166e-01 7.333647256060929487e-02 -8.178321226685614231e-01
1.175689697265625000e-02 4.028320312500000000e-02 -2.218017578125000000e-01 5.695848677695376505e-01 5.229502307987599075e-02 -8.202672180265607738e-01
1.274108886718750000e-02 4.010009765625000000e-02 -2.208251953125000000e-01 5.527798364524145747e-01 2.720584169135017993e-02 -8.328831218061192310e-01
1.669311523437500000e-02 4.522705078125000000e-02 -2.489013671875000000e-01 3.066982674376942386e-01 -3.203761507372442363e-01 -8.962674237020457069e-01
1.779174804687500000e-02 4.504394531250000000e-02 -2.479248046875000000e-01 2.717999956721788291e-01 -3.335666882854371740e-01 -9.026948691661482727e-01
1.895141601562500000e-02 4.504394531250000000e-02 -2.479248046875000000e-01 -2.755283550235121393e-01 2.889814024766976797e-01 9.168281597991186915e-01
2.012634277343750000e-02 4.504394531250000000e-02 -2.479248046875000000e-01 -2.572077540068546386e-01 2.638008321227405806e-01 9.296522426424296270e-01
2.119445800781250000e-02 4.486083984375000000e-02 -2.469482421875000000e-01 -2.974361484706006808e-01 2.069902279314955185e-01 9.320336813247911412e-01
2.235412597656250000e-02 4.486083984375000000e-02 -2.469482421875000000e-01 -3.310358203412198663e-01 1.672967105158602585e-01 9.286695301890701693e-01
2.351379394531250000e-02 4.486083984375000000e-02 -2.469482421875000000e-01 -3.196900626533468737e-01 1.105248398661308612e-01 9.410539429880017126e-01
2.458190917968750000e-02 4.467773437500000000e-02 -2.458496093750000000e-01 -2.632111120802504423e-01 8.455011185985444183e-03 9.647012093199234251e-01
2.574157714843750000e-02 4.467773437500000000e-02 -2.458496093750000000e-01 -2.379587769619120052e-01 -8.887110224807069636e-02 9.672008827808233900e-01
2.688598632812500000e-02 4.467773437500000000e-02 -2.458496093750000000e-01 -1.291995745783830751e-01 -2.770040193736697520e-01 9.521429741270984737e-01
2.804565429687500000e-02 4.467773437500000000e-02 -2.458496093750000000e-01 -5.454899345315573217e-02 -3.617115649225688401e-01 9.306928339224030955e-01
2.920532226562500000e-02 4.467773437500000000e-02 -2.458496093750000000e-01 6.377502577280445839e-02 -4.673718097185386444e-01 8.817575276503717419e-01
3.034973144531250000e-02 4.467773437500000000e-02 -2.458496093750000000e-01 1.252254804993805926e-01 -6.355363616496758628e-01 7.618478273610758134e-01
3.149414062500000000e-02 4.467773437500000000e-02 -2.458496093750000000e-01 2.194924430342601596e-01 -6.816269751039415459e-01 6.980026749672973985e-01
3.265380859375000000e-02 4.467773437500000000e-02 -2.458496093750000000e-01 -1.705583967347225338e-01 7.686483543415737474e-01 -6.165140230937746768e-01
3.393554687500000000e-02 4.486083984375000000e-02 -2.469482421875000000e-01 2.673197788220454951e-01 -6.991752797551848975e-01 6.630943100568665871e-01
3.524780273437500000e-02 4.504394531250000000e-02 -2.479248046875000000e-01 2.440601032369314194e-01 -7.270596099109323251e-01 6.417312440922143812e-01
3.659057617187500000e-02 4.010009765625000000e-02 -2.208251953125000000e-01 4.299389340414310201e-01 5.050134602555024499e-02 9.014444669778198804e-01
3.778076171875000000e-02 4.028320312500000000e-02 -2.218017578125000000e-01 4.231404684140527839e-01 2.503257252956074194e-02 9.057182311861058377e-01
3.900146484375000000e-02 4.046630859375000000e-02 -2.227783203125000000e-01 4.420755469411656868e-01 6.318034667186870137e-03 8.969555692645057032e-01
4.006958007812500000e-02 4.046630859375000000e-02 -2.227783203125000000e-01 -4.420780901807987995e-01 1.059949590871848285e-01 -8.906918832178742917e-01
4.129028320312500000e-02 4.064941406250000000e-02 -2.237548828125000000e-01 4.037617115138675272e-01 -1.364412814927969120e-01 9.046326641350044273e-01
4.232788085937500000e-02 4.064941406250000000e-02 -2.237548828125000000e-01 4.456351549932109912e-01 -1.728169845593095777e-01 8.783755452436070588e-01
4.357910156250000000e-02 4.083251953125000000e-02 -2.248535156250000000e-01 4.651261355628699690e-01 -1.922465429440369800e-01 8.641174368929359639e-01
4.483032226562500000e-02 4.101562500000000000e-02 -2.258300781250000000e-01 -4.293035338934813039e-01 2.149464803529006485e-01 -8.772094883039447399e-01
4.589843750000000000e-02 4.101562500000000000e-02 -2.258300781250000000e-01 -4.481240859087705086e-01 2.226381730897733502e-01 -8.658042778317029953e-01
5.438232421875000000e-02 4.449462890625000000e-02 -2.448730468750000000e-01 -2.985520818206544580e-01 -2.239404697095501717e-01 -9.277485222121450992e-01
5.575561523437500000e-02 4.467773437500000000e-02 -2.458496093750000000e-01 -3.158625467306184209e-01 -2.128295253298747025e-01 -9.246266515306099665e-01
5.715942382812500000e-02 4.486083984375000000e-02 -2.469482421875000000e-01 -3.326092108122978841e-01 -2.115736085434440916e-01 -9.190254191537501338e-01
5.831909179687500000e-02 4.486083984375000000e-02 -2.469482421875000000e-01 -3.474709935646106418e-01 -2.250340132891199274e-01 -9.102876476665027194e-01
5.969238281250000000e-02 4.504394531250000000e-02 -2.479248046875000000e-01 -3.636237815019874864e-01 -2.044399265854311143e-01 -9.088355527508474863e-01
6.088256835937500000e-02 4.504394531250000000e-02 -2.479248046875000000e-01 -3.460672047037522403e-01 -2.363665215276458953e-01 -9.079473318036967999e-01
-6.555175781250000000e-02 3.817749023437500000e-02 -2.158203125000000000e-01 -4.718816952775713447e-01 -3.626533778189782731e-01 -8.036231661783092006e-01
-6.488037109375000000e-02 3.836059570312500000e-02 -2.167968750000000000e-01 5.632450657976384445e-01 3.557528067336828137e-01 7.457847788442192316e-01
-6.414794921875000000e-02 3.854370117187500000e-02 -2.177734375000000000e-01 6.839749783102425651e-01 2.882538227567965627e-01 6.701402559998888009e-01
-6.311035156250000000e-02 3.854370117187500000e-02 -2.177734375000000000e-01 6.933732250868221980e-01 2.747905280916740911e-01 6.661259163279851236e-01
-6.237792968750000000e-02 3.872680664062500000e-02 -2.187500000000000000e-01 7.563298626229136845e-01 2.135001326901260210e-01 6.183711120727610755e-01
-6.164550781250000000e-02 3.890991210937500000e-02 -2.198486328125000000e-01 8.056373514969045191e-01 3.753612847906267341e-02 5.912186540797375045e-01
-6.088256835937500000e-02 3.906250000000000000e-02 -2.208251953125000000e-01 8.155150834049932351e-01 -3.755179979563515874e-02 5.775162431231308791e-01
-6.011962890625000000e-02 3.924560546875000000e-02 -2.218017578125000000e-01 7.889349648248338287e-01 -2.092721846228216553e-01 5.777428268875606232e-01
-5.935668945312500000e-02 3.942871093750000000e-02 -2.227783203125000000e-01 7.330564890974009540e-01 -3.138911318292705310e-01 6.034074420746993184e-01
-5.856323242187500000e-02 3.961181640625000000e-02 -2.237548828125000000e-01 7.118513423490507863e-01 -3.870435833771427858e-01 5.860588118631400167e-01
-5.776977539062500000e-02 3.979492187500000000e-02 -2.248535156250000000e-01 7.157679123859795878e-01 -4.026749292347003850e-01 5.705516602065455745e-01
-5.697631835937500000e-02 3.997802734375000000e-02 -2.258300781250000000e-01 7.156939915247859663e-01 -4.362692766348658657e-01 5.453908953767110379e-01
-5.615234375000000000e-02 4.013061523437500000e-02 -2.268066406250000000e-01 7.116517843225314000e-01 -4.701038191270457967e-01 5.220671768199215412e-01
-5.532836914062500000e-02 4.031372070312500000e-02 -2.277832031250000000e-01 6.816528849104785959e-01 -4.993009855995790280e-01 5.348344325793832343e-01
-5.450439453125000000e-02 4.049682617187500000e-02 -2.288818359375000000e-01 6.678518534141185681e-01 -5.089816033862837319e-01 5.430576666484456805e-01
-5.364990234375000000e-02 4.067993164062500000e-02 -2.298583984375000000e-01 6.267449309995555273e-01 -5.361798725174747871e-01 5.654219095273075313e-01
-5.279541015625000000e-02 4.086303710937500000e-02 -2.308349609375000000e-01 6.085735470996653795e-01 -5.613442235281179693e-01 5.608305452470877528e-01
-5.172729492187500000e-02 4.086303710937500000e-02 -2.308349609375000000e-01 5.822779522881580405e-01 -5.723864693353019062e-01 5.773440187626238673e-01
-5.087280273437500000e-02 4.101562500000000000e-02 -2.318115234375000000e-01 5.453790120201728042e-01 -5.715538288568751124e-01 6.130970183967184850e-01
-4.998779296875000000e-02 4.119873046875000000e-02 -2.327880859375000000e-01 4.345888092323577645e-01 -6.224867352608981497e-01 6.508785073377594266e-01
-4.888916015625000000e-02 4.119873046875000000e-02 -2.327880859375000000e-01 3.658120430432135195e-01 -6.559480988876711383e-01 6.602375638587978379e-01
-4.800415039062500000e-02 4.138183593750000000e-02 -2.338867187500000000e-01 2.337014284308601142e-01 -6.913104881997478302e-01 6.837203019176787411e-01
-4.690551757812500000e-02 4.138183593750000000e-02 -2.338867187500000000e-01 7.353547156899416237e-02 -7.176866197799577352e-01 6.924727071949796642e-01
-4.580688476562500000e-02 4.138183593750000000e-02 -2.338867187500000000e-01 -1.004356104202397265e-01 -7.106625434072092462e-01 6.963271052870987354e-01
-4.470825195312500000e-02 4.138183593750000000e-02 -2.338867187500000000e-01 -2.000097426498659847e-01 -7.097655230053786513e-01 6.754472630768709740e-01
-4.342651367187500000e-02 4.119873046875000000e-02 -2.327880859375000000e-01 -3.598364401508615251e-01 -6.358428787900322066e-01 6.828041958215836926e-01
-4.232788085937500000e-02 4.119873046875000000e-02 -2.327880859375000000e-01 -4.679959228986968478e-01 -5.365240560609942921e-01 7.022262836280454001e-01
-4.104614257812500000e-02 4.101562500000000000e-02 -2.318115234375000000e-01 -5.274686324161220741e-01 -5.049903234704589128e-01 6.831995426068925292e-01
-3.979492187500000000e-02 4.086303710937500000e-02 -2.308349609375000000e-01 -5.217835863407550567e-01 -4.728806654108210772e-01 7.100181443498461142e-01
-3.854370117187500000e-02 4.067993164062500000e-02 -2.298583984375000000e-01 -5.200580215023199449e-01 -4.993091936453209478e-01 6.929862793824651535e-01
-3.729248046875000000e-02 4.049682617187500000e-02 -2.288818359375000000e-01 5.596959665927032646e-01 5.456652916948435683e-01 -6.236904796607370960e-01
-3.607177734375000000e-02 4.031372070312500000e-02 -2.277832031250000000e-01 -5.457347671129513245e-01 -7.233465949669563022e-01 4.230168643374432880e-01
-3.485107421875000000e-02 4.013061523437500000e-02 -2.268066406250000000e-01 -4.651068480797032612e-01 -7.822238412525813755e-01 4.144894233215377088e-01
-3.347778320312500000e-02 3.979492187500000000e-02 -2.248535156250000000e-01 -3.484638610916198087e-01 -7.690921122329931192e-01 5.357893806470162001e-01
-3.228759765625000000e-02 3.961181640625000000e-02 -2.237548828125000000e-01 -3.413505843573386711e-01 -7.313502504337947574e-01 5.904291572655685494e-01
-3.356933593750000000e-02 4.403686523437500000e-02 -2.489013671875000000e-01 -4.630754101740133799e-02 -1.789335144885854587e-02 -9.987669596151295126e-01
-3.237915039062500000e-02 4.403686523437500000e-02 -2.489013671875000000e-01 5.913417152022706902e-02 -7.850149133814043889e-02 -9.951586132955410058e-01
-3.123474121093750000e-02 4.403686523437500000e-02 -2.489013671875000000e-01 -7.865804804618363455e-02 6.478390505517676867e-02 9.947944295799840964e-01
-3.005981445312500000e-02 4.403686523437500000e-02 -2.489013671875000000e-01 -1.243888117464908988e-01 1.410178901098828042e-01 9.821615845578837156e-01
-2.888488769531250000e-02 4.403686523437500000e-02 -2.489013671875000000e-01 -2.031400638791680535e-01 2.230855510126051877e-01 9.533975830557627207e-01
-2.760314941406250000e-02 4.388427734375000000e-02 -2.479248046875000000e-01 -2.351733493186378421e-01 2.709664040832027720e-01 9.334188254092973258e-01
-2.644348144531250000e-02 4.388427734375000000e-02 -2.479248046875000000e-01 -2.593420421319854174e-01 3.251130309004230945e-01 9.094191675578164880e-01
-2.517700195312500000e-02 4.370117187500000000e-02 -2.469482421875000000e-01 -2.292025662452039647e-01 3.747463709698677370e-01 8.983492311298134636e-01
-2.401733398437500000e-02 4.370117187500000000e-02 -2.469482421875000000e-01 -2.167958611487847409e-01 3.970927397071515319e-01 8.918054219731035293e-01
-2.285766601562500000e-02 4.370117187500000000e-02 -2.469482421875000000e-01 -1.721584904270529182e-01 4.336067764708573247e-01 8.845035995248579086e-01
-2.169799804687500000e-02 4.370117187500000000e-02 -2.469482421875000000e-01 -1.720615883490327624e-01 4.445216222216996638e-01 8.790877869656683608e-01
-2.044677734375000000e-02 4.351806640625000000e-02 -2.458496093750000000e-01 -1.791520815700554103e-01 4.782219426816105567e-01 8.597722403095734434e-01
-1.930236816406250000e-02 4.351806640625000000e-02 -2.458496093750000000e-01 -1.703943035944430751e-01 4.547224742901168626e-01 8.741814758264090379e-01
-1.814270019531250000e-02 4.351806640625000000e-02 -2.458496093750000000e-01 -1.741995645028574513e-01 4.341252400196700667e-01 8.838494146091170345e-01
-1.698303222656250000e-02 4.351806640625000000e-02 -2.458496093750000000e-01 -1.879190215801477271e-01 4.077898462214611386e-01 8.935288930118807649e-01
-1.576232910156250000e-02 4.333496093750000000e-02 -2.448730468750000000e-01 -1.939235337838469964e-01 3.849217670835852201e-01 9.023463283407514579e-01
-1.462554931640625000e-02 4.333496093750000000e-02 -2.448730468750000000e-01 -2.276421619740914004e-01 2.947439056553126657e-01 9.280652327130963775e-01
-1.347351074218750000e-02 4.333496093750000000e-02 -2.448730468750000000e-01 -2.659033792766664073e-01 2.178600989213828609e-01 9.390593006765943773e-01
-1.226806640625000000e-02 4.315185546875000000e-02 -2.438964843750000000e-01 -3.344501958500213368e-01 1.509173406340871826e-01 9.302510536364994032e-01
-1.112365722656250000e-02 4.315185546875000000e-02 -2.438964843750000000e-01 -3.545072955777457402e-01 4.404363623331641886e-02 9.340153828976801575e-01
-9.979248046875000000e-03 4.315185546875000000e-02 -2.438964843750000000e-01 -3.464796844959165401e-01 -1.867819575247776876e-03 9.380556164117587192e-01
-8.796691894531250000e-03 4.299926757812500000e-02 -2.429199218750000000e-01 -3.887749692965030701e-01 -2.581906098610337041e-02 9.209709003754131817e-01
-7.659912109375000000e-03 4.299926757812500000e-02 -2.429199218750000000e-01 -3.565499142189033077e-01 -1.541274586084216414e-01 9.214753850067846086e-01
-6.519317626953125000e-03 4.299926757812500000e-02 -2.429199218750000000e-01 -4.158986099581362117e-01 -2.101071436694068595e-01 8.848069475393902650e-01
-5.355834960937500000e-03 4.281616210937500000e-02 -2.419433593750000000e-01 4.465459069183868035e-01 1.592629447786150787e-01 -8.804726386633935364e-01
-4.219055175781250000e-03 4.281616210937500000e-02 -2.419433593750000000e-01 6.274368578812854480e-01 2.847872872978483572e-01 -7.247200772474789998e-01
-2.967834472656250000e-03 4.119873046875000000e-02 -2.327880859375000000e-01 6.468456391084015378e-01 4.704558427147236266e-01 -6.002183096357713854e-01
-1.874923706054687500e-03 4.119873046875000000e-02 -2.327880859375000000e-01 6.282839287818229312e-01 5.033578965253984183e-01 -5.932032812114271803e-01
-7.815361022949218750e-04 4.119873046875000000e-02 -2.327880859375000000e-01 -5.995818542816504504e-01 -5.200562200423484160e-01 6.083117030038481809e-01
3.106594085693359375e-04 4.101562500000000000e-02 -2.318115234375000000e-01 -5.705256870489570087e-01 -5.179595641606812295e-01 6.373525949674895275e-01
1.393318176269531250e-03 4.086303710937500000e-02 -2.308349609375000000e-01 6.148367056296828448e-01 5.140016696422531339e-01 -5.981455583847585800e-01
2.466201782226562500e-03 4.067993164062500000e-02 -2.298583984375000000e-01 6.340141748516580078e-01 5.143095781794775334e-01 -5.775047046388618321e-01
3.530502319335937500e-03 4.049682617187500000e-02 -2.288818359375000000e-01 6.659245695866623516e-01 4.868506379768641756e-01 -5.652618189143316929e-01
4.585266113281250000e-03 4.031372070312500000e-02 -2.277832031250000000e-01 6.806716683924545208e-01 4.465698458117761671e-01 -5.807421567782720118e-01
5.630493164062500000e-03 4.013061523437500000e-02 -2.268066406250000000e-01 6.865379277472192232e-01 4.091937725526679226e-01 -6.010209066818471557e-01
6.664276123046875000e-03 3.997802734375000000e-02 -2.258300781250000000e-01 6.698660350849652279e-01 3.570735474213730942e-01 -6.509823167886087392e-01
7.690429687500000000e-03 3.979492187500000000e-02 -2.248535156250000000e-01 6.882955275785624938e-01 3.008759326002095058e-01 -6.600931297152717869e-01
8.705139160156250000e-03 3.961181640625000000e-02 -2.237548828125000000e-01 -6.795588808944986736e-01 -1.895312711586105425e-01 7.087154751029625110e-01
9.712219238281250000e-03 3.942871093750000000e-02 -2.227783203125000000e-01 -6.135218855993780362e-01 -1.007557722860824706e-01 7.832235761528242302e-01
1.071166992187500000e-02 3.924560546875000000e-02 -2.218017578125000000e-01 -5.891489896559909401e-01 -5.050651159125323780e-02 8.064443937893099879e-01
1.175689697265625000e-02 3.924560546875000000e-02 -2.218017578125000000e-01 -5.746449917575711108e-01 -4.713731346936118893e-02 8.170441892130635431e-01
1.274108886718750000e-02 3.906250000000000000e-02 -2.208251953125000000e-01 5.593668429859114388e-01 5.100177170863748333e-02 -8.273497170184775928e-01
1.371002197265625000e-02 3.890991210937500000e-02 -2.198486328125000000e-01 5.546465532288162859e-01 3.644452861217112316e-02 -8.312875539340346398e-01
1.474761962890625000e-02 3.890991210937500000e-02 -2.198486328125000000e-01 5.278926752590824556e-01 2.175138000122528448e-02 -8.490325087273460358e-01
1.779174804687500000e-02 4.388427734375000000e-02 -2.479248046875000000e-01 2.416371884923877444e-01 -3.564741704332807237e-01 -9.025173876172127851e-01
1.895141601562500000e-02 4.388427734375000000e-02 -2.479248046875000000e-01 -2.411843511898677517e-01 3.356375037709464215e-01 9.105918815822653389e-01
2.003479003906250000e-02 4.370117187500000000e-02 -2.469482421875000000e-01 -2.200185293800564212e-01 3.344457323292934214e-01 9.163721399388786715e-01
2.119445800781250000e-02 4.370117187500000000e-02 -2.469482421875000000e-01 -2.351997667908800049e-01 3.073926603151354020e-01 9.220579277279163932e-01
2.235412597656250000e-02 4.370117187500000000e-02 -2.469482421875000000e-01 -2.561771989076079836e-01 2.412869198356493994e-01 9.360309103208487302e-01
2.342224121093750000e-02 4.351806640625000000e-02 -2.458496093750000000e-01 -1.772512918930229664e-01 1.536751818253546953e-01 9.720935747206636002e-01
2.458190917968750000e-02 4.351806640625000000e-02 -2.458496093750000000e-01 -1.632741147665095205e-01 6.270389842621089393e-02 9.845860980987737321e-01
2.574157714843750000e-02 4.351806640625000000e-02 -2.458496093750000000e-01 -1.480866091800539797e-01 -2.875592334629408636e-02 9.885562467831842115e-01
2.688598632812500000e-02 4.351806640625000000e-02 -2.458496093750000000e-01 3.233702560275202725e-02 -1.524266117117278330e-01 9.877856269541732681e-01
2.804565429687500000e-02 4.351806640625000000e-02 -2.458496093750000000e-01 1.185200996372275245e-01 -3.106251975265090226e-01 9.431145066446591230e-01
2.920532226562500000e-02 4.351806640625000000e-02 -2.458496093750000000e-01 1.882986553467686786e-01 -4.706690566714916701e-01 8.619827466292853124e-01
3.047180175781250000e-02 4.370117187500000000e-02 -2.469482421875000000e-01 2.652110645196226191e-01 -5.869541051629374451e-01 7.649496517345072411e-01
3.161621093750000000e-02 4.370117187500000000e-02 -2.469482421875000000e-01 2.658083233245501775e-01 -6.171849336703956190e-01 7.405597159592605117e-01
3.277587890625000000e-02 4.370117187500000000e-02 -2.469482421875000000e-01 3.071066047128730991e-01 -6.287450416449505974e-01 7.143984924036587136e-01
3.408813476562500000e-02 4.388427734375000000e-02 -2.479248046875000000e-01 2.874815507640899881e-01 -6.462928552385934777e-01 7.068662555517984947e-01
3.540039062500000000e-02 4.403686523437500000e-02 -2.489013671875000000e-01 3.071137937543970686e-01 -6.401635264249302404e-01 7.041816364553816765e-01
3.900146484375000000e-02 3.942871093750000000e-02 -2.227783203125000000e-01 -4.517534513116489570e-01 6.891271758811028103e-02 -8.894772940230878389e-01
4.006958007812500000e-02 3.942871093750000000e-02 -2.227783203125000000e-01 -4.557417799828882843e-01 8.078753657466888893e-02 -8.864382685287371944e-01
4.129028320312500000e-02 3.961181640625000000e-02 -2.237548828125000000e-01 -4.445754977940584163e-01 1.470529541621897196e-01 -8.835881707183147471e-01
4.254150390625000000e-02 3.979492187500000000e-02 -2.248535156250000000e-01 -4.507841914943248041e-01 1.778048586567175515e-01 -8.747451314165012315e-01
4.357910156250000000e-02 3.979492187500000000e-02 -2.248535156250000000e-01 -4.726647180310854512e-01 1.868885963972433950e-01 -8.611972578133666456e-01
4.483032226562500000e-02 3.997802734375000000e-02 -2.258300781250000000e-01 -4.297864197599929326e-01 1.873767045342151216e-01 -8.832743650688529291e-01
5.459594726562500000e-02 4.351806640625000000e-02 -2.458496093750000000e-01 -2.987811881597379760e-01 -2.205551418367498462e-01 -9.284854500805204136e-01
5.575561523437500000e-02 4.351806640625000000e-02 -2.458496093750000000e-01 -3.149036048430755574e-01 -2.193543986945420132e-01 -9.234280521135322939e-01
5.715942382812500000e-02 4.370117187500000000e-02 -2.469482421875000000e-01 -3.196826962934733452e-01 -2.131435599545449810e-01 -9.232403785257867757e-01
5.831909179687500000e-02 4.370117187500000000e-02 -2.469482421875000000e-01 -3.398487067519635474e-01 -2.065742305013287261e-01 -9.175129120681634332e-01
5.947875976562500000e-02 4.370117187500000000e-02 -2.469482421875000000e-01 -3.729817403422721611e-01 -2.161832775069524593e-01 -9.023022841030612362e-01
-6.726074218750000000e-02 3.698730468750000000e-02 -2.147216796875000000e-01 -2.995536841179959886e-01 -2.010678281768411013e-01 -9.326517671690677247e-01
-6.628417968750000000e-02 3.698730468750000000e-02 -2.147216796875000000e-01 -3.333475853891437746e-01 -2.950897822802617254e-01 -8.954336422700545084e-01
-6.555175781250000000e-02 3.717041015625000000e-02 -2.158203125000000000e-01 -4.179311381664166936e-01 -3.388691099254066974e-01 -8.429123857728550995e-01
-6.457519531250000000e-02 3.717041015625000000e-02 -2.158203125000000000e-01 5.017913255871139233e-01 3.691525241587784167e-01 7.822607490298421062e-01
-6.384277343750000000e-02 3.735351562500000000e-02 -2.167968750000000000e-01 6.145299033931463928e-01 3.694053304910030477e-01 6.970600401977171678e-01
-6.311035156250000000e-02 3.750610351562500000e-02 -2.177734375000000000e-01 7.171883763260574751e-01 2.729434599671796136e-01 6.412041020797807356e-01
-6.237792968750000000e-02 3.768920898437500000e-02 -2.187500000000000000e-01 7.996182347515075062e-01 2.061283103507215719e-01 5.640228703916532194e-01
-6.164550781250000000e-02 3.787231445312500000e-02 -2.198486328125000000e-01 8.491521820213651095e-01 7.081456441473865659e-02 5.233792785687118032e-01
-6.088256835937500000e-02 3.802490234375000000e-02 -2.208251953125000000e-01 8.625437499304025035e-01 -4.455500845864179132e-02 5.040169944329750962e-01
-6.039428710937500000e-02 3.839111328125000000e-02 -2.227783203125000000e-01 8.380266423439586276e-01 -2.743195530742829624e-01 4.716567920880994635e-01
-5.960083007812500000e-02 3.854370117187500000e-02 -2.237548828125000000e-01 7.681561614172273122e-01 -3.929813460207720599e-01 5.054718324065672341e-01
-5.883789062500000000e-02 3.872680664062500000e-02 -2.248535156250000000e-01 7.197088944992712234e-01 -4.531422292138484464e-01 5.260049688755239483e-01
-5.801391601562500000e-02 3.890991210937500000e-02 -2.258300781250000000e-01 7.110335990695775266e-01 -4.780770542202569806e-01 5.156292769250448993e-01
-5.722045898437500000e-02 3.906250000000000000e-02 -2.268066406250000000e-01 7.141948381617652108e-01 -4.863265375855493344e-01 5.034006674440760776e-01
-5.639648437500000000e-02 3.924560546875000000e-02 -2.277832031250000000e-01 7.055673302905098865e-01 -4.946309895142784741e-01 5.074592856957573783e-01
-5.557250976562500000e-02 3.942871093750000000e-02 -2.288818359375000000e-01 6.833577232817801272e-01 -5.173255117196315922e-01 5.151665138138963318e-01
-5.474853515625000000e-02 3.958129882812500000e-02 -2.298583984375000000e-01 6.505569500926801085e-01 -5.436501942318504588e-01 5.303019149482502970e-01
-5.364990234375000000e-02 3.958129882812500000e-02 -2.298583984375000000e-01 6.464880672578002807e-01 -5.422666144848439229e-01 5.366564056343868794e-01
-5.279541015625000000e-02 3.976440429687500000e-02 -2.308349609375000000e-01 6.221319595215163423e-01 -5.602690277958094489e-01 5.468550460905128308e-01
-5.194091796875000000e-02 3.994750976562500000e-02 -2.318115234375000000e-01 5.813589067955896583e-01 -5.755007204389064324e-01 5.751701854788168200e-01
-5.108642578125000000e-02 4.010009765625000000e-02 -2.327880859375000000e-01 5.318002736077509507e-01 -5.830701291130612196e-01 6.141805056551365993e-01
-5.020141601562500000e-02 4.028320312500000000e-02 -2.338867187500000000e-01 4.476467147804086832e-01 -6.291459226208135913e-01 6.354430161673921829e-01
-4.910278320312500000e-02 4.028320312500000000e-02 -2.338867187500000000e-01 3.736081223376186422e-01 -6.476787932780327939e-01 6.640249631311087031e-01
-4.821777343750000000e-02 4.046630859375000000e-02 -2.348632812500000000e-01 2.673230794104575203e-01 -6.624409156303481261e-01 6.997931155086739574e-01
-4.711914062500000000e-02 4.046630859375000000e-02 -2.348632812500000000e-01 1.633611452612195314e-01 -6.730614990718037927e-01 7.213191767076201355e-01
-4.602050781250000000e-02 4.046630859375000000e-02 -2.348632812500000000e-01 -1.492075261388060500e-02 -6.953442204215449784e-01 7.185219455714552117e-01
-4.489135742187500000e-02 4.046630859375000000e-02 -2.348632812500000000e-01 -1.855653313238186108e-01 -6.864939048978512259e-01 7.030587645060555335e-01
-4.360961914062500000e-02 4.028320312500000000e-02 -2.338867187500000000e-01 -3.962233170400809024e-01 -6.526252333871865874e-01 6.458230313174623261e-01
-4.232788085937500000e-02 4.010009765625000000e-02 -2.327880859375000000e-01 -4.817049438431957320e-01 -5.685843192712980443e-01 6.668374756684107840e-01
-4.104614257812500000e-02 3.994750976562500000e-02 -2.318115234375000000e-01 -5.217489255078324728e-01 -5.311335323821926302e-01 6.675891172799605089e-01
-3.997802734375000000e-02 3.994750976562500000e-02 -2.318115234375000000e-01 -5.368126475540071496e-01 -5.261607106888769314e-01 6.595355092437656941e-01
-3.854370117187500000e-02 3.958129882812500000e-02 -2.298583984375000000e-01 -5.010706717428643486e-01 -5.471435199482962419e-01 6.704939600755124296e-01
-3.747558593750000000e-02 3.958129882812500000e-02 -2.298583984375000000e-01 -5.033896567233859809e-01 -5.741349925469226845e-01 6.457304885453812870e-01
-3.622436523437500000e-02 3.942871093750000000e-02 -2.288818359375000000e-01 -4.771706512205211026e-01 -6.670872304398898223e-01 5.721038337555700570e-01
-3.500366210937500000e-02 3.924560546875000000e-02 -2.277832031250000000e-01 -4.599074796911962193e-01 -7.520470345127320266e-01 4.721338454344249369e-01
-3.378295898437500000e-02 3.906250000000000000e-02 -2.268066406250000000e-01 -4.237247559038566647e-01 -8.014964888502824625e-01 4.219724038309685121e-01
-3.237915039062500000e-02 4.287719726562500000e-02 -2.489013671875000000e-01 8.630897068511171610e-02 -1.084076384073652810e-01 -9.903527379243293183e-01
-3.123474121093750000e-02 4.287719726562500000e-02 -2.489013671875000000e-01 9.742523976278145981e-02 -1.242006358930028004e-01 -9.874626700290692893e-01
-3.005981445312500000e-02 4.287719726562500000e-02 -2.489013671875000000e-01 1.633145324194249792e-01 -1.849261368251131632e-01 -9.690875540525552001e-01
-2.877807617187500000e-02 4.269409179687500000e-02 -2.479248046875000000e-01 2.173840047285239274e-01 -3.142348270771984087e-01 -9.241215655637260440e-01
-2.760314941406250000e-02 4.269409179687500000e-02 -2.479248046875000000e-01 2.638218913353545525e-01 -3.450248733823703118e-01 -9.007529330508537990e-01
-2.633666992187500000e-02 4.254150390625000000e-02 -2.469482421875000000e-01 -2.920983344633208412e-01 3.601580288435733412e-01 8.859823684832931479e-01
-2.517700195312500000e-02 4.254150390625000000e-02 -2.469482421875000000e-01 -2.525041849522518533e-01 3.796381727855051014e-01 8.900092664380984120e-01
-2.401733398437500000e-02 4.254150390625000000e-02 -2.469482421875000000e-01 -2.498055641750426270e-01 3.945912726767034640e-01 8.842482160765539057e-01
-2.276611328125000000e-02 4.235839843750000000e-02 -2.458496093750000000e-01 -2.317114759232218879e-01 4.461019559309858384e-01 8.644667933703590323e-01
-2.160644531250000000e-02 4.235839843750000000e-02 -2.458496093750000000e-01 -1.964828952302914711e-01 4.698037254956666242e-01 8.606270570882109672e-01
-2.044677734375000000e-02 4.235839843750000000e-02 -2.458496093750000000e-01 -1.705290264046570858e-01 4.880160920011714643e-01 8.560141033308878988e-01
-1.922607421875000000e-02 4.217529296875000000e-02 -2.448730468750000000e-01 -1.503029338406573767e-01 4.905480710659305132e-01 8.583540167392389453e-01
-1.806640625000000000e-02 4.217529296875000000e-02 -2.448730468750000000e-01 -1.474650898344246619e-01 4.779028214523206031e-01 8.659462688458426927e-01
-1.692199707031250000e-02 4.217529296875000000e-02 -2.448730468750000000e-01 -1.511594239253468697e-01 4.427238780898826720e-01 8.838248674526033577e-01
-1.576232910156250000e-02 4.217529296875000000e-02 -2.448730468750000000e-01 -1.532736171069615516e-01 4.145512310070507689e-01 8.970253481198217083e-01
-1.462554931640625000e-02 4.217529296875000000e-02 -2.448730468750000000e-01 -1.652612475975145101e-01 3.945259510802064939e-01 9.039015399736696210e-01
-1.342010498046875000e-02 4.202270507812500000e-02 -2.438964843750000000e-01 -1.809776066653823734e-01 3.598739841645663406e-01 9.152801873782648867e-01
-1.226806640625000000e-02 4.202270507812500000e-02 -2.438964843750000000e-01 -2.269624102633183982e-01 2.866993671535396082e-01 9.307478376022289002e-01
-1.112365722656250000e-02 4.202270507812500000e-02 -2.438964843750000000e-01 -2.574495084755701879e-01 2.077259504725942618e-01 9.436999947472419770e-01
-9.941101074218750000e-03 4.183959960937500000e-02 -2.429199218750000000e-01 -2.869620066254293111e-01 1.477654771949754309e-01 9.464767141894449010e-01
-8.796691894531250000e-03 4.183959960937500000e-02 -2.429199218750000000e-01 -3.323112217004871582e-01 8.834472425847926524e-02 9.390231422215444823e-01
-7.659912109375000000e-03 4.183959960937500000e-02 -2.429199218750000000e-01 -2.972340403273373566e-01 9.467459103541089882e-03 9.547577140242490268e-01
-6.492614746093750000e-03 4.165649414062500000e-02 -2.419433593750000000e-01 -2.702428653060459651e-01 1.349680345285272365e-01 9.532850693295708000e-01
-5.355834960937500000e-03 4.165649414062500000e-02 -2.419433593750000000e-01 4.515807246839279587e-01 -2.851491502452377369e-02 -8.917744943174157335e-01
-4.219055175781250000e-03 4.165649414062500000e-02 -2.419433593750000000e-01 4.829065231966869209e-01 -3.307445402084949193e-02 -8.750470675028347856e-01
-1.883506774902343750e-03 4.028320312500000000e-02 -2.338867187500000000e-01 6.220626450005060093e-01 5.434208288370299123e-01 -5.636770959344098442e-01
-7.848739624023437500e-04 4.028320312500000000e-02 -2.338867187500000000e-01 5.889244411519904965e-01 5.784622600096003264e-01 -5.644018217178266017e-01
3.120899200439453125e-04 4.010009765625000000e-02 -2.327880859375000000e-01 -5.648709920786597616e-01 -5.821875060918830780e-01 5.847892526873116337e-01
1.399040222167968750e-03 3.994750976562500000e-02 -2.318115234375000000e-01 5.843994768607789769e-01 5.650955825918981823e-01 -5.823609138497973792e-01
2.477645874023437500e-03 3.976440429687500000e-02 -2.308349609375000000e-01 6.169721461240909033e-01 5.568263843452546658e-01 -5.561382459461172711e-01
3.545761108398437500e-03 3.958129882812500000e-02 -2.298583984375000000e-01 6.487015713269499440e-01 5.402812999360174784e-01 -5.359873023658239255e-01
4.604339599609375000e-03 3.942871093750000000e-02 -2.288818359375000000e-01 6.776765885284026236e-01 5.251864615537774617e-01 -5.147170309608268823e-01
5.653381347656250000e-03 3.924560546875000000e-02 -2.277832031250000000e-01 6.789024811297285078e-01 4.989669319509071888e-01 -5.386310629135652173e-01
6.664276123046875000e-03 3.890991210937500000e-02 -2.258300781250000000e-01 6.710812413818501021e-01 3.810386706776635601e-01 -6.359713035299580097e-01
7.690429687500000000e-03 3.872680664062500000e-02 -2.248535156250000000e-01 7.189983954983465431e-01 3.114839357248870844e-01 -6.213043256377164258e-01
8.705139160156250000e-03 3.854370117187500000e-02 -2.237548828125000000e-01 7.069152496532995489e-01 2.164566360644677723e-01 -6.733627213554873592e-01
9.712219238281250000e-03 3.839111328125000000e-02 -2.227783203125000000e-01 -6.750803942969931803e-01 -1.371199662310922662e-01 7.248893543821708363e-01
1.071166992187500000e-02 3.820800781250000000e-02 -2.218017578125000000e-01 -5.918927794548463073e-01 -1.013747885392963094e-01 7.996162141163907222e-01
1.175689697265625000e-02 3.820800781250000000e-02 -2.218017578125000000e-01 -5.836607521818104605e-01 -8.025200499375742536e-02 8.080221173068502516e-01
1.274108886718750000e-02 3.802490234375000000e-02 -2.208251953125000000e-01 -5.738402013804476676e-01 -7.285365068228420726e-02 8.157203987040603232e-01
1.371002197265625000e-02 3.787231445312500000e-02 -2.198486328125000000e-01 5.628316467003138257e-01 5.958889847523460292e-02 -8.244208274001340042e-01
1.474761962890625000e-02 3.787231445312500000e-02 -2.198486328125000000e-01 5.397763259660244284e-01 5.985510595372384168e-02 -8.396778454966451477e-01
1.771545410156250000e-02 4.254150390625000000e-02 -2.469482421875000000e-01 1.963083416800163739e-01 -3.397620048278228722e-01 -9.197960725412022143e-01
1.887512207031250000e-02 4.254150390625000000e-02 -2.469482421875000000e-01 2.182340413684410729e-01 -3.381088867481076843e-01 -9.154541407902162531e-01
2.003479003906250000e-02 4.254150390625000000e-02 -2.469482421875000000e-01 -1.851364970502147878e-01 3.272268423327317488e-01 9.266321120687137647e-01
2.119445800781250000e-02 4.254150390625000000e-02 -2.469482421875000000e-01 -1.953703084335127738e-01 2.996282549983468324e-01 9.338379684877028408e-01
2.226257324218750000e-02 4.235839843750000000e-02 -2.458496093750000000e-01 -1.196943826763818830e-01 1.963088716225976915e-01 9.732091664580551083e-01
2.342224121093750000e-02 4.235839843750000000e-02 -2.458496093750000000e-01 -1.250169869141077861e-01 1.406606045528488169e-01 9.821330598802511247e-01
2.458190917968750000e-02 4.235839843750000000e-02 -2.458496093750000000e-01 -1.110610212192905816e-01 7.612551141345400008e-02 9.908937158332210560e-01
2.574157714843750000e-02 4.235839843750000000e-02 -2.458496093750000000e-01 -4.635301452995214955e-02 -6.107995508862998791e-04 9.989249346011414010e-01
2.688598632812500000e-02 4.235839843750000000e-02 -2.458496093750000000e-01 1.262951977871610565e-01 -1.343382267231510163e-01 9.828543960611770824e-01
2.804565429687500000e-02 4.235839843750000000e-02 -2.458496093750000000e-01 2.300250231540996171e-01 -2.152619666708034118e-01 9.490789084306814338e-01
2.931213378906250000e-02 4.254150390625000000e-02 -2.469482421875000000e-01 3.779059344224087735e-01 -4.278756730676405717e-01 8.210417243509854357e-01
3.060913085937500000e-02 4.269409179687500000e-02 -2.479248046875000000e-01 3.269263908370988458e-01 -5.564482655557326796e-01 7.638615468357111693e-01
3.176879882812500000e-02 4.269409179687500000e-02 -2.479248046875000000e-01 3.324558761065923851e-01 -5.708058674319863579e-01 7.507687740892102779e-01
3.292846679687500000e-02 4.269409179687500000e-02 -2.479248046875000000e-01 3.328381145054623569e-01 -6.391330910822881073e-01 6.933452829694944919e-01
3.424072265625000000e-02 4.287719726562500000e-02 -2.489013671875000000e-01 3.345351089832909741e-01 -6.386731199728785668e-01 6.929523119823229882e-01
3.540039062500000000e-02 4.287719726562500000e-02 -2.489013671875000000e-01 3.345351089832909741e-01 -6.386731199728785668e-01 6.929523119823229882e-01
4.129028320312500000e-02 3.854370117187500000e-02 -2.237548828125000000e-01 -4.424937362358538628e-01 1.521533165911695962e-01 -8.837695749698234460e-01
4.254150390625000000e-02 3.872680664062500000e-02 -2.248535156250000000e-01 -4.507841914943248041e-01 1.778048586567175515e-01 -8.747451314165012315e-01
4.357910156250000000e-02 3.872680664062500000e-02 -2.248535156250000000e-01 -4.612476155416858625e-01 1.856562569029414078e-01 -8.676303310914725841e-01
5.209350585937500000e-02 4.217529296875000000e-02 -2.448730468750000000e-01 -3.053763375379368039e-01 -2.288897931345816317e-01 -9.243131260945742778e-01
5.343627929687500000e-02 4.235839843750000000e-02 -2.458496093750000000e-01 -3.200627508428136592e-01 -2.150602694449056662e-01 -9.226640320448256105e-01
5.459594726562500000e-02 4.235839843750000000e-02 -2.458496093750000000e-01 -3.003937075270166623e-01 -2.213717745466633191e-01 -9.277705308492152358e-01
5.575561523437500000e-02 4.235839843750000000e-02 -2.458496093750000000e-01 -3.136239280911228278e-01 -2.161144838255803780e-01 -9.246267147392495112e-01
5.691528320312500000e-02 4.235839843750000000e-02 -2.458496093750000000e-01 -3.104419420448374378e-01 -2.183724096489554345e-01 -9.251698716038796455e-01
5.831909179687500000e-02 4.254150390625000000e-02 -2.469482421875000000e-01 -3.333144503394578351e-01 -2.047927553605157769e-01 -9.203050605895597425e-01
-6.927490234375000000e-02 3.598022460937500000e-02 -2.147216796875000000e-01 -2.157268859448796539e-01 3.402821532846046770e-02 -9.758606413018637848e-01
-6.829833984375000000e-02 3.598022460937500000e-02 -2.147216796875000000e-01 -2.525063885512131567e-01 -5.623101605126931690e-02 -9.659599352844121523e-01
-6.726074218750000000e-02 3.598022460937500000e-02 -2.147216796875000000e-01 -2.231547889738502155e-01 -1.245382279763248834e-01 -9.667947920476984702e-01
-6.628417968750000000e-02 3.598022460937500000e-02 -2.147216796875000000e-01 3.119741431307418988e-01 2.247408302929852497e-01 9.231271273324486160e-01
-6.524658203125000000e-02 3.598022460937500000e-02 -2.147216796875000000e-01 3.790236536033234627e-01 2.648265725376609536e-01 8.866836845725440952e-01
-6.457519531250000000e-02 3.616333007812500000e-02 -2.158203125000000000e-01 4.817066664985361069e-01 3.450114946343805777e-01 8.055592815063450374e-01
-6.384277343750000000e-02 3.631591796875000000e-02 -2.167968750000000000e-01 5.881227286501313767e-01 3.681753162375624999e-01 7.201101252992454516e-01
-6.280517578125000000e-02 3.631591796875000000e-02 -2.167968750000000000e-01 7.112757129114821719e-01 3.127274801518168945e-01 6.295144028377411827e-01
-6.210327148437500000e-02 3.649902343750000000e-02 -2.177734375000000000e-01 7.205580651785978841e-01 2.934127549123911050e-01 6.282555451094694599e-01
-6.164550781250000000e-02 3.683471679687500000e-02 -2.198486328125000000e-01 8.842546404733427901e-01 7.342775350627928077e-02 4.611963744614437366e-01
-6.115722656250000000e-02 3.717041015625000000e-02 -2.218017578125000000e-01 8.787844541555031030e-01 -1.968771502964246911e-01 4.347151605658276519e-01
-6.039428710937500000e-02 3.732299804687500000e-02 -2.227783203125000000e-01 8.790127982018872688e-01 -2.643235613815333451e-01 3.968243383360841037e-01
-5.960083007812500000e-02 3.750610351562500000e-02 -2.237548828125000000e-01 7.796328940605140589e-01 -4.430718341193028986e-01 4.425606176660822899e-01
-5.883789062500000000e-02 3.765869140625000000e-02 -2.248535156250000000e-01 6.999320723206486905e-01 -5.084633505082222227e-01 5.015576889320660925e-01
-5.801391601562500000e-02 3.784179687500000000e-02 -2.258300781250000000e-01 7.055842868233315190e-01 -5.174683232969712332e-01 4.841253438648218665e-01
-5.722045898437500000e-02 3.802490234375000000e-02 -2.268066406250000000e-01 7.001312142903874935e-01 -5.298658989991894552e-01 4.786004720579035143e-01
-5.639648437500000000e-02 3.817749023437500000e-02 -2.277832031250000000e-01 7.008011092241780426e-01 -5.196119393472777848e-01 4.887547828900731806e-01
-5.557250976562500000e-02 3.836059570312500000e-02 -2.288818359375000000e-01 6.751922194486882356e-01 -5.362767248115182239e-01 5.064807412146936638e-01
-5.474853515625000000e-02 3.851318359375000000e-02 -2.298583984375000000e-01 6.660426535615444621e-01 -5.376958507987016356e-01 5.169819684191672149e-01
-5.389404296875000000e-02 3.869628906250000000e-02 -2.308349609375000000e-01 6.463370537869936872e-01 -5.536684830737843566e-01 5.250710654308838876e-01
-5.303955078125000000e-02 3.884887695312500000e-02 -2.318115234375000000e-01 6.278084955276425072e-01 -5.616814497458713085e-01 5.388603176656212579e-01
-5.218505859375000000e-02 3.903198242187500000e-02 -2.327880859375000000e-01 5.880632344241319975e-01 -5.744607950340342439e-01 5.693649333138575130e-01
-5.130004882812500000e-02 3.918457031250000000e-02 -2.338867187500000000e-01 5.017631837824050312e-01 -6.234970121048725167e-01 5.995708325934817617e-01
-5.020141601562500000e-02 3.918457031250000000e-02 -2.338867187500000000e-01 4.724717215062520514e-01 -6.180653185749922507e-01 6.283038551144756179e-01
-4.931640625000000000e-02 3.936767578125000000e-02 -2.348632812500000000e-01 3.796575796859961716e-01 -6.202903599153480885e-01 6.863672425043749747e-01
-4.821777343750000000e-02 3.936767578125000000e-02 -2.348632812500000000e-01 2.651837328563522722e-01 -6.523623983852501196e-01 7.100006260570586036e-01
