4.571533203125000000e-02 5.870819091796875000e-03 -2.198486328125000000e-01 -1.813796860663824118e-01 2.844920724027013015e-01 9.413637289711543898e-01
4.675292968750000000e-02 5.870819091796875000e-03 -2.198486328125000000e-01 -1.269108127724748181e-01 3.807143428598631085e-01 9.159422660529497051e-01
4.776000976562500000e-02 5.870819091796875000e-03 -2.198486328125000000e-01 -9.642105984561670506e-02 4.138164455683274734e-01 9.052397078097289551e-01
4.879760742187500000e-02 5.870819091796875000e-03 -2.198486328125000000e-01 -7.004078001546966414e-02 4.423711485993816472e-01 8.940928676718590262e-01
4.983520507812500000e-02 5.870819091796875000e-03 -2.198486328125000000e-01 -7.807623154329028370e-02 4.692097839818015204e-01 8.796284901501030262e-01
5.087280273437500000e-02 5.870819091796875000e-03 -2.198486328125000000e-01 -8.246444438233326013e-02 5.132715351087083766e-01 8.542551999606808888e-01
5.166625976562500000e-02 5.844116210937500000e-03 -2.187500000000000000e-01 -8.350483699720727404e-02 5.055605352528357299e-01 8.587406403524501242e-01
5.270385742187500000e-02 5.844116210937500000e-03 -2.187500000000000000e-01 -6.214976150477377614e-02 5.190521693295471195e-01 8.524800599774700061e-01
5.371093750000000000e-02 5.844116210937500000e-03 -2.187500000000000000e-01 -3.029571180667858799e-02 5.274683514609168622e-01 8.490343385595363612e-01
5.474853515625000000e-02 5.844116210937500000e-03 -2.187500000000000000e-01 1.913736397819075161e-02 5.333488465167883774e-01 8.456788806746788900e-01
5.578613281250000000e-02 5.844116210937500000e-03 -2.187500000000000000e-01 4.477607069907534737e-02 5.360999431476248800e-01 8.429661644751019756e-01
5.679321289062500000e-02 5.844116210937500000e-03 -2.187500000000000000e-01 5.853926960812919078e-02 5.382656431113299611e-01 8.407397048788007865e-01
5.810546875000000000e-02 5.870819091796875000e-03 -2.198486328125000000e-01 5.725959558233419122e-02 5.710052053218175327e-01 8.189471254050144644e-01
5.914306640625000000e-02 5.870819091796875000e-03 -2.198486328125000000e-01 4.785998286850356304e-02 5.692633154486924640e-01 8.207610491027147459e-01
6.015014648437500000e-02 5.870819091796875000e-03 -2.198486328125000000e-01 2.952626999921430587e-02 5.671769239047058653e-01 8.230665443145706028e-01
6.118774414062500000e-02 5.870819091796875000e-03 -2.198486328125000000e-01 2.687239694988852873e-02 5.738580919332002539e-01 8.185137534610852361e-01
6.222534179687500000e-02 5.870819091796875000e-03 -2.198486328125000000e-01 4.417274620817999292e-02 5.677026210563050901e-01 8.220477495487892305e-01
6.323242187500000000e-02 5.870819091796875000e-03 -2.198486328125000000e-01 6.471237507741661732e-02 5.599893880147572833e-01 8.259686397331906793e-01
6.427001953125000000e-02 5.870819091796875000e-03 -2.198486328125000000e-01 9.890336225174002627e-02 5.498993062906193385e-01 8.293544946983749666e-01
6.530761718750000000e-02 5.870819091796875000e-03 -2.198486328125000000e-01 1.406684026044558999e-01 5.541545146122481835e-01 8.204420603818251001e-01
6.634521484375000000e-02 5.870819091796875000e-03 -2.198486328125000000e-01 1.797035603431183515e-01 5.220048013490151684e-01 8.337971082754980223e-01
6.738281250000000000e-02 5.870819091796875000e-03 -2.198486328125000000e-01 2.141915107407246222e-01 5.053826629321047648e-01 8.358889643572646744e-01
6.872558593750000000e-02 5.897521972656250000e-03 -2.208251953125000000e-01 2.756863501681618978e-01 4.808179019846735569e-01 8.323527986749457153e-01
6.976318359375000000e-02 5.897521972656250000e-03 -2.208251953125000000e-01 -2.832506602952846730e-01 -4.561196284065059392e-01 -8.436373320477208448e-01
7.110595703125000000e-02 5.924224853515625000e-03 -2.218017578125000000e-01 -2.761277388073475336e-01 -4.204130213829972429e-01 -8.642952986756093914e-01
7.621765136718750000e-03 4.905700683593750000e-03 -2.227783203125000000e-01 4.511087188926607983e-01 -2.820283907030366466e-01 -8.467354430850746461e-01
8.628845214843750000e-03 4.882812500000000000e-03 -2.218017578125000000e-01 -4.503904686323249029e-01 2.518792642041453589e-01 8.565659706228897496e-01
9.674072265625000000e-03 4.882812500000000000e-03 -2.218017578125000000e-01 -4.361450669570465233e-01 2.797164259724232993e-01 8.552988960651399797e-01
1.066589355468750000e-02 4.859924316406250000e-03 -2.208251953125000000e-01 -3.547786255067056915e-01 3.062210986212825503e-01 8.833803063475816897e-01
1.170349121093750000e-02 4.859924316406250000e-03 -2.208251953125000000e-01 -2.949284545959058867e-01 3.076579777491906809e-01 9.046346087769079336e-01
1.274108886718750000e-02 4.859924316406250000e-03 -2.208251953125000000e-01 -2.705567993124534110e-01 3.269937550362978507e-01 9.054689958872486066e-01
1.371002197265625000e-02 4.837036132812500000e-03 -2.198486328125000000e-01 -2.204967587555746178e-01 3.069146227938044924e-01 9.258426398117677314e-01
1.474761962890625000e-02 4.837036132812500000e-03 -2.198486328125000000e-01 -1.945730573820383946e-01 3.301109362908780653e-01 9.236709885463361136e-01
1.577758789062500000e-02 4.837036132812500000e-03 -2.198486328125000000e-01 -1.216303749157169600e-01 3.685760968926171666e-01 9.216060507056506035e-01
1.679992675781250000e-02 4.837036132812500000e-03 -2.198486328125000000e-01 -8.442149796814161014e-03 4.146411287551191593e-01 9.099458579780934642e-01
1.783752441406250000e-02 4.837036132812500000e-03 -2.198486328125000000e-01 7.292419735932761937e-02 3.451458702023516012e-01 9.357117022468829370e-01
1.887512207031250000e-02 4.837036132812500000e-03 -2.198486328125000000e-01 1.063379912253460402e-01 2.749943286963903999e-01 9.555471473490880774e-01
1.989746093750000000e-02 4.837036132812500000e-03 -2.198486328125000000e-01 8.231324964475283945e-02 2.096965350887774471e-01 9.742955876450850594e-01
2.093505859375000000e-02 4.837036132812500000e-03 -2.198486328125000000e-01 8.854429004302176442e-02 1.877536131608725511e-01 9.782169950710397632e-01
2.197265625000000000e-02 4.837036132812500000e-03 -2.198486328125000000e-01 1.555716297616538402e-01 1.484055323164817919e-01 9.766131608734159864e-01
2.299499511718750000e-02 4.837036132812500000e-03 -2.198486328125000000e-01 2.124989391496280022e-01 9.196395815469748936e-02 9.728241522807725694e-01
2.413940429687500000e-02 4.859924316406250000e-03 -2.208251953125000000e-01 1.857946307786068341e-01 3.884092463016670244e-02 9.818206240183157130e-01
2.517700195312500000e-02 4.859924316406250000e-03 -2.208251953125000000e-01 9.436519804629697750e-02 2.715521688290709057e-02 9.951672239346136539e-01
2.621459960937500000e-02 4.859924316406250000e-03 -2.208251953125000000e-01 3.127572817416178486e-02 1.219024310497372754e-02 9.994364546084046896e-01
2.725219726562500000e-02 4.859924316406250000e-03 -2.208251953125000000e-01 1.440011275373485333e-01 -6.740838893475024907e-02 9.872789800098012991e-01
2.828979492187500000e-02 4.859924316406250000e-03 -2.208251953125000000e-01 2.215789584837999371e-01 -3.856480339023967557e-02 9.743795569985581606e-01
2.946472167968750000e-02 4.882812500000000000e-03 -2.218017578125000000e-01 2.317964404902289888e-01 -8.343903185029784633e-03 9.727285281391198080e-01
3.050231933593750000e-02 4.882812500000000000e-03 -2.218017578125000000e-01 1.467573074700410929e-01 -3.191805399667695803e-02 9.886574384149492412e-01
3.155517578125000000e-02 4.882812500000000000e-03 -2.218017578125000000e-01 3.069083327852256335e-02 -1.318622943325591448e-02 9.994419423388251067e-01
3.259277343750000000e-02 4.882812500000000000e-03 -2.218017578125000000e-01 -2.836338132085105916e-13 -2.749881959031277299e-15 1.000000000000000000e+00
3.363037109375000000e-02 4.882812500000000000e-03 -2.218017578125000000e-01 -0.000000000000000000e+00 -0.000000000000000000e+00 1.000000000000000000e+00
3.466796875000000000e-02 4.882812500000000000e-03 -2.218017578125000000e-01 2.850348811191008782e-13 2.804711324754951335e-15 1.000000000000000000e+00
3.570556640625000000e-02 4.882812500000000000e-03 -2.218017578125000000e-01 0.000000000000000000e+00 0.000000000000000000e+00 1.000000000000000000e+00
3.674316406250000000e-02 4.882812500000000000e-03 -2.218017578125000000e-01 -6.934171333412397775e-02 -9.615612243011351437e-03 9.975466238693208032e-01
3.778076171875000000e-02 4.882812500000000000e-03 -2.218017578125000000e-01 -1.643109403275151426e-01 -3.208507070200310174e-02 9.858866380708966037e-01
3.884887695312500000e-02 4.882812500000000000e-03 -2.218017578125000000e-01 -2.341341254785553327e-01 -2.672614966060501626e-02 9.718368814830556923e-01
3.970336914062500000e-02 4.859924316406250000e-03 -2.208251953125000000e-01 -3.172076446428463981e-01 -4.499419086554891367e-02 9.472881467475945394e-01
4.074096679687500000e-02 4.859924316406250000e-03 -2.208251953125000000e-01 -3.313013678026832110e-01 2.251410315056708369e-02 9.432563378273145505e-01
4.177856445312500000e-02 4.859924316406250000e-03 -2.208251953125000000e-01 -2.705221758098587115e-01 4.555301112790192258e-02 9.616354171786110072e-01
4.260253906250000000e-02 4.837036132812500000e-03 -2.198486328125000000e-01 -1.950795949164672027e-01 9.511321484315207742e-02 9.761646520999556209e-01
4.364013671875000000e-02 4.837036132812500000e-03 -2.198486328125000000e-01 -1.962001187081240383e-01 1.328865973311863791e-01 9.715177124832347078e-01
4.467773437500000000e-02 4.837036132812500000e-03 -2.198486328125000000e-01 -2.352399429014856713e-01 1.746025773099999789e-01 9.561255719100975048e-01
4.571533203125000000e-02 4.837036132812500000e-03 -2.198486328125000000e-01 -2.275506751909306125e-01 1.811338319938731178e-01 9.567712501571976613e-01
4.675292968750000000e-02 4.837036132812500000e-03 -2.198486328125000000e-01 -1.962775713790331222e-01 2.137553264077522996e-01 9.569659217578564414e-01
4.754638671875000000e-02 4.814147949218750000e-03 -2.187500000000000000e-01 -1.653005003729298983e-01 2.397335790678403744e-01 9.566627178079964988e-01
4.858398437500000000e-02 4.814147949218750000e-03 -2.187500000000000000e-01 -1.470723908217529408e-01 3.199293558193507248e-01 9.359566865742178221e-01
4.962158203125000000e-02 4.814147949218750000e-03 -2.187500000000000000e-01 -1.433739408780251301e-01 3.854885882515559081e-01 9.115056014117122185e-01
5.062866210937500000e-02 4.814147949218750000e-03 -2.187500000000000000e-01 -1.353831188198678925e-01 4.001402587556917578e-01 9.063990205541559986e-01
5.166625976562500000e-02 4.814147949218750000e-03 -2.187500000000000000e-01 -1.279805749311764274e-01 4.169776879616032828e-01 8.998614227660175491e-01
5.270385742187500000e-02 4.814147949218750000e-03 -2.187500000000000000e-01 -8.865460737570499128e-02 4.355194378347077566e-01 8.958030921241563194e-01
5.371093750000000000e-02 4.814147949218750000e-03 -2.187500000000000000e-01 -5.029360975080575391e-02 4.317506356009766511e-01 9.005897742459583188e-01
5.474853515625000000e-02 4.814147949218750000e-03 -2.187500000000000000e-01 -1.899203175122785112e-03 4.286842708306423666e-01 9.034523722752074715e-01
5.578613281250000000e-02 4.814147949218750000e-03 -2.187500000000000000e-01 3.414799446423185530e-02 4.643439546107795968e-01 8.849963877273697710e-01
5.679321289062500000e-02 4.814147949218750000e-03 -2.187500000000000000e-01 4.572662686965302953e-02 4.792575337537016700e-01 8.764823397738502608e-01
5.783081054687500000e-02 4.814147949218750000e-03 -2.187500000000000000e-01 4.691618398149122876e-02 4.931928347458765516e-01 8.686539583953677424e-01
5.886840820312500000e-02 4.814147949218750000e-03 -2.187500000000000000e-01 3.813864130267712732e-02 5.064791879980787837e-01 8.614083097836892078e-01
5.987548828125000000e-02 4.814147949218750000e-03 -2.187500000000000000e-01 1.946460039664143354e-02 5.187507672515005996e-01 8.547039082672890364e-01
6.091308593750000000e-02 4.814147949218750000e-03 -2.187500000000000000e-01 -9.643234233294028721e-03 5.292014990437474697e-01 8.484413836225648264e-01
6.195068359375000000e-02 4.814147949218750000e-03 -2.187500000000000000e-01 3.113709041479950992e-02 5.328679076857629759e-01 8.456253748316081564e-01
6.298828125000000000e-02 4.814147949218750000e-03 -2.187500000000000000e-01 5.558292000133867317e-02 5.251403422367285634e-01 8.491985397771337762e-01
6.396484375000000000e-02 4.814147949218750000e-03 -2.187500000000000000e-01 1.008101942419409452e-01 5.205030442039052518e-01 8.478878969010995581e-01
6.500244140625000000e-02 4.814147949218750000e-03 -2.187500000000000000e-01 1.192629271400661717e-01 5.044490160928226663e-01 8.551652146649595387e-01
6.604003906250000000e-02 4.814147949218750000e-03 -2.187500000000000000e-01 1.682432662752599839e-01 5.110022968704835966e-01 8.429536499393796012e-01
6.738281250000000000e-02 4.837036132812500000e-03 -2.198486328125000000e-01 2.443042443329810076e-01 4.861324721372985991e-01 8.390415101379489204e-01
6.842041015625000000e-02 4.837036132812500000e-03 -2.198486328125000000e-01 2.835984635938166853e-01 4.575590379601582880e-01 8.427405521441345693e-01
6.976318359375000000e-02 4.859924316406250000e-03 -2.208251953125000000e-01 -3.081149815381530876e-01 -4.465993306685192565e-01 -8.400084499564118845e-01
7.080078125000000000e-02 4.859924316406250000e-03 -2.208251953125000000e-01 -3.056368727529699680e-01 -4.239276931258204595e-01 -8.525675416146245578e-01
7.621765136718750000e-03 3.858566284179687500e-03 -2.227783203125000000e-01 -4.761183231246519654e-01 2.245614165126685324e-01 8.502255657170003644e-01
8.628845214843750000e-03 3.841400146484375000e-03 -2.218017578125000000e-01 -4.519369876432787203e-01 2.377062697049754925e-01 8.597957248921772599e-01
9.628295898437500000e-03 3.824234008789062500e-03 -2.208251953125000000e-01 -4.540819220291861802e-01 2.017119054887955010e-01 8.678259706129791695e-01
1.066589355468750000e-02 3.824234008789062500e-03 -2.208251953125000000e-01 -3.744967463026694920e-01 1.886570291785486242e-01 9.078329760205003929e-01
1.165008544921875000e-02 3.807067871093750000e-03 -2.198486328125000000e-01 -3.138413429738845517e-01 2.067536109129033406e-01 9.266911868658428419e-01
1.268005371093750000e-02 3.807067871093750000e-03 -2.198486328125000000e-01 -2.595281966762039705e-01 1.609965534400760179e-01 9.522212058709962346e-01
1.371002197265625000e-02 3.807067871093750000e-03 -2.198486328125000000e-01 -2.608973437284580199e-01 2.016322055603958219e-01 9.440746949877880656e-01
1.474761962890625000e-02 3.807067871093750000e-03 -2.198486328125000000e-01 -2.216405918509411210e-01 1.757892162978809125e-01 9.591525423400291128e-01
1.570129394531250000e-02 3.789901733398437500e-03 -2.187500000000000000e-01 -1.532509468221585902e-01 1.537441330776169179e-01 9.761541317037611964e-01
1.672363281250000000e-02 3.789901733398437500e-03 -2.187500000000000000e-01 -2.259133977396364859e-02 1.894220117635294076e-01 9.816358453248713589e-01
1.776123046875000000e-02 3.789901733398437500e-03 -2.187500000000000000e-01 1.185878739820992178e-01 1.839453781138248312e-01 9.757566366748257058e-01
1.887512207031250000e-02 3.807067871093750000e-03 -2.198486328125000000e-01 1.464562924643537378e-01 1.017207418902025540e-01 9.839732948951929181e-01
1.989746093750000000e-02 3.807067871093750000e-03 -2.198486328125000000e-01 1.022591924567276545e-01 5.012259169802073255e-02 9.934942291526264180e-01
2.093505859375000000e-02 3.807067871093750000e-03 -2.198486328125000000e-01 1.349339484547726342e-01 5.400723014025415186e-02 9.893816496413213590e-01
2.197265625000000000e-02 3.807067871093750000e-03 -2.198486328125000000e-01 2.019904715901277292e-01 9.100134287723146698e-03 9.793452082604698905e-01
2.299499511718750000e-02 3.807067871093750000e-03 -2.198486328125000000e-01 2.398410240087004985e-01 5.216417565033097453e-04 9.708120369527439841e-01
2.413940429687500000e-02 3.824234008789062500e-03 -2.208251953125000000e-01 2.158381596730918062e-01 1.947325822132645740e-02 9.762349517627292306e-01
2.517700195312500000e-02 3.824234008789062500e-03 -2.208251953125000000e-01 1.333149607333238285e-01 -1.638951720827280453e-02 9.909381943241223345e-01
2.621459960937500000e-02 3.824234008789062500e-03 -2.208251953125000000e-01 1.354549545843481972e-01 -6.554326408942157123e-02 9.886131881636298635e-01
2.725219726562500000e-02 3.824234008789062500e-03 -2.208251953125000000e-01 1.563665713210962149e-01 -1.135891195403289505e-01 9.811457625120425519e-01
2.828979492187500000e-02 3.824234008789062500e-03 -2.208251953125000000e-01 2.081407194037844521e-01 -1.207785702405823614e-01 9.706131968486291228e-01
2.946472167968750000e-02 3.841400146484375000e-03 -2.218017578125000000e-01 1.752068929064537206e-01 -7.500584558713789540e-02 9.816703457912054898e-01
3.050231933593750000e-02 3.841400146484375000e-03 -2.218017578125000000e-01 1.069872513570687411e-01 -4.860022609601379745e-02 9.930718735673040864e-01
3.155517578125000000e-02 3.841400146484375000e-03 -2.218017578125000000e-01 2.767391136346550318e-02 -2.543331253566229536e-02 9.992934009805680695e-01
3.259277343750000000e-02 3.841400146484375000e-03 -2.218017578125000000e-01 -2.603326120664095388e-13 -1.053531750287937448e-14 1.000000000000000000e+00
3.363037109375000000e-02 3.841400146484375000e-03 -2.218017578125000000e-01 0.000000000000000000e+00 0.000000000000000000e+00 1.000000000000000000e+00
3.466796875000000000e-02 3.841400146484375000e-03 -2.218017578125000000e-01 2.431750058670762890e-13 2.246928028039694977e-14 1.000000000000000000e+00
3.570556640625000000e-02 3.841400146484375000e-03 -2.218017578125000000e-01 -4.873617345117553867e-15 -4.950016864379619915e-14 1.000000000000000000e+00
3.674316406250000000e-02 3.841400146484375000e-03 -2.218017578125000000e-01 -6.202546147955634998e-02 -1.000810738566184667e-02 9.980243884368784624e-01
3.778076171875000000e-02 3.841400146484375000e-03 -2.218017578125000000e-01 -1.260685692275381742e-01 -5.336693267154895420e-02 9.905850222722690779e-01
3.884887695312500000e-02 3.841400146484375000e-03 -2.218017578125000000e-01 -2.228350860666462874e-01 -3.241347789875162477e-02 9.743171408058968197e-01
3.970336914062500000e-02 3.824234008789062500e-03 -2.208251953125000000e-01 -3.266179233877616883e-01 -6.722474124618489644e-02 9.427627306413048913e-01
4.074096679687500000e-02 3.824234008789062500e-03 -2.208251953125000000e-01 -3.444202948479351267e-01 -5.465015386202957959e-02 9.372235705421186891e-01
4.177856445312500000e-02 3.824234008789062500e-03 -2.208251953125000000e-01 -3.177408541983893220e-01 -3.956370342843802679e-02 9.473518158236170494e-01
4.260253906250000000e-02 3.807067871093750000e-03 -2.198486328125000000e-01 -2.496968854018767892e-01 -1.620908550195422279e-02 9.681883757656835066e-01
4.364013671875000000e-02 3.807067871093750000e-03 -2.198486328125000000e-01 -2.575607836747936252e-01 1.274232951468993146e-02 9.661780766253006414e-01
4.467773437500000000e-02 3.807067871093750000e-03 -2.198486328125000000e-01 -2.678593032974536658e-01 4.701243685824978147e-02 9.623103576381435431e-01
4.571533203125000000e-02 3.807067871093750000e-03 -2.198486328125000000e-01 -2.309653974636908247e-01 8.110503560073087370e-02 9.695756589223162303e-01
4.653930664062500000e-02 3.789901733398437500e-03 -2.187500000000000000e-01 -2.452292269354212073e-01 1.304472084926860953e-01 9.606488182749830518e-01
4.754638671875000000e-02 3.789901733398437500e-03 -2.187500000000000000e-01 -2.614464350272359128e-01 2.006645996904613816e-01 9.441289530793006701e-01
4.858398437500000000e-02 3.789901733398437500e-03 -2.187500000000000000e-01 -2.371285273606457966e-01 2.604946653867520889e-01 9.359020198807221913e-01
4.962158203125000000e-02 3.789901733398437500e-03 -2.187500000000000000e-01 -1.855233806442059263e-01 3.270901108358050258e-01 9.266030081042072597e-01
5.062866210937500000e-02 3.789901733398437500e-03 -2.187500000000000000e-01 -1.699023254050900655e-01 3.317538575359153530e-01 9.279399645623536141e-01
5.142211914062500000e-02 3.770828247070312500e-03 -2.177734375000000000e-01 -1.314475150318027974e-01 2.744089998815121834e-01 9.525866110627381200e-01
5.245971679687500000e-02 3.770828247070312500e-03 -2.177734375000000000e-01 -1.152586730532913634e-01 2.777022819344386328e-01 9.537278861889274539e-01
5.346679687500000000e-02 3.770828247070312500e-03 -2.177734375000000000e-01 -7.831962304256805119e-02 3.375971227259995100e-01 9.380267690069385988e-01
5.450439453125000000e-02 3.770828247070312500e-03 -2.177734375000000000e-01 -3.053221633670208726e-02 3.825266485007197126e-01 9.234398447935716625e-01
5.551147460937500000e-02 3.770828247070312500e-03 -2.177734375000000000e-01 -1.929705328251710150e-02 4.076906534510400526e-01 9.129161817074311625e-01
5.654907226562500000e-02 3.770828247070312500e-03 -2.177734375000000000e-01 6.304058781312005949e-03 4.283043264711289266e-01 9.036125623125179640e-01
5.755615234375000000e-02 3.770828247070312500e-03 -2.177734375000000000e-01 1.585258765462718364e-02 4.625337907715755814e-01 8.864599189242167165e-01
5.859375000000000000e-02 3.770828247070312500e-03 -2.177734375000000000e-01 1.317559689386576041e-02 4.926562771629139359e-01 8.701242418289862890e-01
5.960083007812500000e-02 3.770828247070312500e-03 -2.177734375000000000e-01 -9.330801910227428482e-04 5.191398850097423967e-01 8.546887791198786166e-01
6.063842773437500000e-02 3.770828247070312500e-03 -2.177734375000000000e-01 -9.093874650578506269e-04 5.191427782554803860e-01 8.546870472866776591e-01
6.167602539062500000e-02 3.770828247070312500e-03 -2.177734375000000000e-01 4.133256767865687437e-02 5.153654306308400601e-01 8.559731840190895058e-01
6.268310546875000000e-02 3.770828247070312500e-03 -2.177734375000000000e-01 7.442625015926576659e-02 5.018632584314820511e-01 8.617389413991721758e-01
6.372070312500000000e-02 3.770828247070312500e-03 -2.177734375000000000e-01 1.134377604701187064e-01 4.556525888091521592e-01 8.829001035287297183e-01
6.500244140625000000e-02 3.789901733398437500e-03 -2.187500000000000000e-01 1.505129644671176770e-01 4.096814811057577499e-01 8.997260313930640629e-01
6.604003906250000000e-02 3.789901733398437500e-03 -2.187500000000000000e-01 1.838682807071290171e-01 3.767240526906913134e-01 9.078939604789237894e-01
6.707763671875000000e-02 3.789901733398437500e-03 -2.187500000000000000e-01 2.724967615175482027e-01 3.767006736366427799e-01 8.853485852725739846e-01
6.811523437500000000e-02 3.789901733398437500e-03 -2.187500000000000000e-01 3.153694300782470816e-01 3.845547714518113835e-01 8.675596523154858186e-01
6.945800781250000000e-02 3.807067871093750000e-03 -2.198486328125000000e-01 -3.633476064962218310e-01 -3.545180154226801328e-01 -8.615657221560237833e-01
7.080078125000000000e-02 3.824234008789062500e-03 -2.208251953125000000e-01 -3.381228909256713266e-01 -3.835046964560011040e-01 -8.594166966194320967e-01
7.621765136718750000e-03 2.811431884765625000e-03 -2.227783203125000000e-01 -4.552595372882481395e-01 2.198084863954003487e-01 8.627995033706575834e-01
8.628845214843750000e-03 2.799987792968750000e-03 -2.218017578125000000e-01 -4.652178168799634972e-01 1.977368267290266490e-01 8.628282159344209390e-01
9.628295898437500000e-03 2.786636352539062500e-03 -2.208251953125000000e-01 -4.323705931854598394e-01 1.612087389412103222e-01 8.871681986170594225e-01
1.066589355468750000e-02 2.786636352539062500e-03 -2.208251953125000000e-01 -3.588782230835465548e-01 1.514638298860557508e-01 9.210130993816776357e-01
1.165008544921875000e-02 2.773284912109375000e-03 -2.198486328125000000e-01 -3.081550930627495744e-01 1.220074830594094217e-01 9.434800542125922895e-01
1.268005371093750000e-02 2.773284912109375000e-03 -2.198486328125000000e-01 -2.872421290802534832e-01 8.283051146182268676e-02 9.542699123688307417e-01
1.371002197265625000e-02 2.773284912109375000e-03 -2.198486328125000000e-01 -2.773335888229259694e-01 1.032075021121718478e-01 9.552142649784718387e-01
1.467895507812500000e-02 2.761840820312500000e-03 -2.187500000000000000e-01 -1.998913473436952359e-01 2.681963689427741340e-02 9.794509463643298330e-01
1.570129394531250000e-02 2.761840820312500000e-03 -2.187500000000000000e-01 -1.723327723069137951e-01 2.410565469860907056e-02 9.847437905366882571e-01
1.672363281250000000e-02 2.761840820312500000e-03 -2.187500000000000000e-01 -8.727564547855082636e-03 -4.586268574669684350e-03 9.999513966976714130e-01
1.776123046875000000e-02 2.761840820312500000e-03 -2.187500000000000000e-01 1.530378501997305962e-01 -1.209290480732977055e-02 9.881463343349333739e-01
1.878356933593750000e-02 2.761840820312500000e-03 -2.187500000000000000e-01 2.212058517910159283e-01 5.986423809274659270e-04 9.752269544883953589e-01
1.989746093750000000e-02 2.773284912109375000e-03 -2.198486328125000000e-01 1.643183768164863667e-01 -2.185775003110375717e-02 9.861651534119286744e-01
2.093505859375000000e-02 2.773284912109375000e-03 -2.198486328125000000e-01 1.447141995540142112e-01 -8.751643006761093690e-02 9.855955940017496753e-01
2.197265625000000000e-02 2.773284912109375000e-03 -2.198486328125000000e-01 1.947221894035095768e-01 -9.888000506130878442e-02 9.758616774691889484e-01
2.299499511718750000e-02 2.773284912109375000e-03 -2.198486328125000000e-01 2.268067752828345773e-01 -9.443333796142232284e-02 9.693508298687660840e-01
2.413940429687500000e-02 2.786636352539062500e-03 -2.208251953125000000e-01 1.906278803580273296e-01 -5.436657472263821400e-02 9.801557461868666277e-01
2.517700195312500000e-02 2.786636352539062500e-03 -2.208251953125000000e-01 1.889841997406763452e-01 -7.230628560204892252e-02 9.793144404688470805e-01
2.621459960937500000e-02 2.786636352539062500e-03 -2.208251953125000000e-01 1.875511814313348402e-01 -9.952894569606010600e-02 9.771993365288074163e-01
2.725219726562500000e-02 2.786636352539062500e-03 -2.208251953125000000e-01 1.871663752681088921e-01 -1.118420823144100906e-01 9.759406214481362030e-01
2.842712402343750000e-02 2.799987792968750000e-03 -2.218017578125000000e-01 -1.982101572205845763e-01 1.190123221789067542e-01 -9.729073957701088737e-01
2.946472167968750000e-02 2.799987792968750000e-03 -2.218017578125000000e-01 -1.882121544098582511e-01 1.144962647333306327e-01 -9.754315918066807090e-01
3.050231933593750000e-02 2.799987792968750000e-03 -2.218017578125000000e-01 -1.342179735130044349e-01 1.083902131759427317e-01 -9.850061407289478765e-01
3.155517578125000000e-02 2.799987792968750000e-03 -2.218017578125000000e-01 -7.574874015012451889e-02 7.236168635034744001e-02 -9.944978203667431682e-01
3.259277343750000000e-02 2.799987792968750000e-03 -2.218017578125000000e-01 -2.007522312581226455e-13 9.952144875336282672e-14 -1.000000000000000444e+00
3.363037109375000000e-02 2.799987792968750000e-03 -2.218017578125000000e-01 1.828646064370129437e-13 6.483850346452559338e-14 -9.999999999999998890e-01
3.466796875000000000e-02 2.799987792968750000e-03 -2.218017578125000000e-01 -2.114528380979812239e-13 -7.382018683008948912e-14 -1.000000000000000222e+00
3.570556640625000000e-02 2.799987792968750000e-03 -2.218017578125000000e-01 3.970298807939091071e-13 1.342883637878732256e-13 -1.000000000000000000e+00
3.674316406250000000e-02 2.799987792968750000e-03 -2.218017578125000000e-01 5.126913900683031239e-02 2.946554162997159360e-02 -9.982500975416684907e-01
3.778076171875000000e-02 2.799987792968750000e-03 -2.218017578125000000e-01 1.426206324779984991e-01 2.866503970272485033e-02 -9.893622545308755623e-01
3.884887695312500000e-02 2.799987792968750000e-03 -2.218017578125000000e-01 -2.117702432746421670e-01 -3.555373797405507463e-02 9.766725632367642129e-01
3.988647460937500000e-02 2.799987792968750000e-03 -2.218017578125000000e-01 -2.785012472871907785e-01 -5.825329983826816466e-02 9.586676213982778805e-01
4.074096679687500000e-02 2.786636352539062500e-03 -2.208251953125000000e-01 -3.360150053857911545e-01 -9.462279730567385583e-02 9.370914802652066111e-01
4.177856445312500000e-02 2.786636352539062500e-03 -2.208251953125000000e-01 -3.398387895940436221e-01 -9.198475165506908580e-02 9.359745736665129323e-01
4.260253906250000000e-02 2.773284912109375000e-03 -2.198486328125000000e-01 -2.427261185498279239e-01 -3.973509738376394818e-02 9.692807402448672116e-01
4.364013671875000000e-02 2.773284912109375000e-03 -2.198486328125000000e-01 -2.568909745366015351e-01 -6.110509182398043276e-02 9.645067106841807014e-01
4.467773437500000000e-02 2.773284912109375000e-03 -2.198486328125000000e-01 -2.848715598110350133e-01 -1.371157220254685255e-02 9.584676244915955046e-01
4.571533203125000000e-02 2.773284912109375000e-03 -2.198486328125000000e-01 -2.940387250289088206e-01 2.646088334740135523e-02 9.554271556931219767e-01
4.653930664062500000e-02 2.761840820312500000e-03 -2.187500000000000000e-01 -2.952797562078066651e-01 6.326537872467820345e-02 9.533138819028501576e-01
4.754638671875000000e-02 2.761840820312500000e-03 -2.187500000000000000e-01 -3.276492741888590854e-01 1.000910603890587947e-01 9.394826942278966531e-01
4.858398437500000000e-02 2.761840820312500000e-03 -2.187500000000000000e-01 -2.465444754830048435e-01 1.307620865837653690e-01 9.602692842745048640e-01
4.962158203125000000e-02 2.761840820312500000e-03 -2.187500000000000000e-01 -2.008860034685658602e-01 1.159360527905605454e-01 9.727299960799871137e-01
5.041503906250000000e-02 2.748489379882812500e-03 -2.177734375000000000e-01 -1.954626320769794201e-01 1.653838693620219014e-01 9.666656791344073740e-01
5.142211914062500000e-02 2.748489379882812500e-03 -2.177734375000000000e-01 -1.860195964848649908e-01 2.286242876325564055e-01 9.555771265722688979e-01
5.245971679687500000e-02 2.748489379882812500e-03 -2.177734375000000000e-01 -1.657988465402871203e-01 2.624248936498726481e-01 9.506018712788038005e-01
5.346679687500000000e-02 2.748489379882812500e-03 -2.177734375000000000e-01 -1.131992991100227303e-01 3.319478193689633927e-01 9.364809468949114590e-01
5.450439453125000000e-02 2.748489379882812500e-03 -2.177734375000000000e-01 -7.437857244616934149e-02 3.783800636242632964e-01 9.226572253077348629e-01
5.551147460937500000e-02 2.748489379882812500e-03 -2.177734375000000000e-01 -4.127058735450483268e-02 3.911179282390718770e-01 9.194147621337120935e-01
5.654907226562500000e-02 2.748489379882812500e-03 -2.177734375000000000e-01 -1.069749515142798604e-02 4.043663701382481102e-01 9.145345276689680336e-01
5.755615234375000000e-02 2.748489379882812500e-03 -2.177734375000000000e-01 -1.048149738699789141e-02 4.043940875979742944e-01 9.145247728346829197e-01
5.859375000000000000e-02 2.748489379882812500e-03 -2.177734375000000000e-01 -1.044977723232506581e-02 4.044123379418304576e-01 9.145170654920646847e-01
5.960083007812500000e-02 2.748489379882812500e-03 -2.177734375000000000e-01 -1.050604378492869112e-02 4.044355270757881704e-01 9.145061659075450766e-01
6.063842773437500000e-02 2.748489379882812500e-03 -2.177734375000000000e-01 1.860141592847210090e-02 3.942645026164628974e-01 9.188087337972190571e-01
6.167602539062500000e-02 2.748489379882812500e-03 -2.177734375000000000e-01 5.350664699182079709e-02 3.917515445196326218e-01 9.185138899843457994e-01
6.268310546875000000e-02 2.748489379882812500e-03 -2.177734375000000000e-01 1.034072516124409230e-01 3.695060486540755473e-01 9.234566694339336745e-01
6.372070312500000000e-02 2.748489379882812500e-03 -2.177734375000000000e-01 1.500776669285214249e-01 3.172714837985719516e-01 9.363842691211468061e-01
6.469726562500000000e-02 2.748489379882812500e-03 -2.177734375000000000e-01 1.912950398518389328e-01 2.774909925534129185e-01 9.414908160889330357e-01
6.573486328125000000e-02 2.748489379882812500e-03 -2.177734375000000000e-01 2.151609276390868408e-01 2.432349318708269259e-01 9.458025920535859665e-01
6.707763671875000000e-02 2.761840820312500000e-03 -2.187500000000000000e-01 2.592620572673020041e-01 2.677558663353525881e-01 9.279493422081460663e-01
6.811523437500000000e-02 2.761840820312500000e-03 -2.187500000000000000e-01 3.325869674822827804e-01 3.120783835446217513e-01 8.899398808824755536e-01
6.915283203125000000e-02 2.761840820312500000e-03 -2.187500000000000000e-01 -3.628671371018471481e-01 -2.761566676866165637e-01 -8.899803007391418053e-01
7.587432861328125000e-03 1.757621765136718750e-03 -2.218017578125000000e-01 -4.528786550292486779e-01 1.850283622228955094e-01 8.721613549063107484e-01
8.628845214843750000e-03 1.757621765136718750e-03 -2.218017578125000000e-01 -4.364851667980212957e-01 1.750073894442380762e-01 8.825265507650272845e-01
9.628295898437500000e-03 1.749992370605468750e-03 -2.208251953125000000e-01 4.124208668545286671e-01 -8.959985284942928452e-02 -9.065764694455287209e-01
1.066589355468750000e-02 1.749992370605468750e-03 -2.208251953125000000e-01 3.856521781143201211e-01 -1.036300042395380538e-01 -9.168059880569028319e-01
1.165008544921875000e-02 1.742362976074218750e-03 -2.198486328125000000e-01 3.100873671432651801e-01 -4.963573898867086609e-02 -9.494114588276287847e-01
1.268005371093750000e-02 1.742362976074218750e-03 -2.198486328125000000e-01 2.791695866604228526e-01 -3.088768788607423529e-02 -9.597449101823365414e-01
1.371002197265625000e-02 1.742362976074218750e-03 -2.198486328125000000e-01 -2.276293212346124084e-01 -4.035121031044138634e-02 9.729114409548035303e-01
1.474761962890625000e-02 1.742362976074218750e-03 -2.198486328125000000e-01 -1.548265225767281594e-01 -5.001841627496745463e-02 9.866746707705341679e-01
1.570129394531250000e-02 1.733779907226562500e-03 -2.187500000000000000e-01 -1.345581590292837804e-01 -1.077702821544511552e-01 9.850277499253511371e-01
1.672363281250000000e-02 1.733779907226562500e-03 -2.187500000000000000e-01 -1.585899827464859468e-02 -1.135169104987630018e-01 9.934094841527035813e-01
1.776123046875000000e-02 1.733779907226562500e-03 -2.187500000000000000e-01 1.199009131737367034e-01 -1.311959974405907670e-01 9.840789507329544827e-01
1.887512207031250000e-02 1.742362976074218750e-03 -2.198486328125000000e-01 1.955388675088416406e-01 -9.993603476560880550e-02 9.755907647413881723e-01
1.989746093750000000e-02 1.742362976074218750e-03 -2.198486328125000000e-01 1.912273269378927942e-01 -1.280441209537596936e-01 9.731581641857439680e-01
2.093505859375000000e-02 1.742362976074218750e-03 -2.198486328125000000e-01 1.864188199602952456e-01 -1.388664340535102903e-01 9.726068769332618658e-01
2.197265625000000000e-02 1.742362976074218750e-03 -2.198486328125000000e-01 2.023282800746719068e-01 -1.446522285793273299e-01 9.685757584459045999e-01
2.310180664062500000e-02 1.749992370605468750e-03 -2.208251953125000000e-01 2.041686575004371951e-01 -1.422403738203319168e-01 9.685467646685529397e-01
2.413940429687500000e-02 1.749992370605468750e-03 -2.208251953125000000e-01 2.253174398998621930e-01 -1.270131170951747379e-01 9.659708687961243712e-01
2.517700195312500000e-02 1.749992370605468750e-03 -2.208251953125000000e-01 -2.105682755316556354e-01 1.306876261982578558e-01 -9.688042865812936943e-01
2.621459960937500000e-02 1.749992370605468750e-03 -2.208251953125000000e-01 -1.886736456380585514e-01 1.245341077192124446e-01 -9.741116524589079617e-01
2.737426757812500000e-02 1.757621765136718750e-03 -2.218017578125000000e-01 -1.810370301325423814e-01 8.553019409114483163e-02 -9.797500597701027658e-01
2.842712402343750000e-02 1.757621765136718750e-03 -2.218017578125000000e-01 -1.843865593913345258e-01 1.242764753218720403e-01 -9.749651041947079433e-01
2.946472167968750000e-02 1.757621765136718750e-03 -2.218017578125000000e-01 -1.717117903700106918e-01 1.091777524811793354e-01 -9.790787912170721974e-01
3.050231933593750000e-02 1.757621765136718750e-03 -2.218017578125000000e-01 -1.225430886689625465e-01 7.556028079070140069e-02 -9.895826571774087865e-01
3.155517578125000000e-02 1.757621765136718750e-03 -2.218017578125000000e-01 -4.786331000898706722e-02 1.151044893916138880e-02 -9.987875715687504208e-01
3.674316406250000000e-02 1.757621765136718750e-03 -2.218017578125000000e-01 8.610680218573650568e-02 3.794578675060111816e-03 -9.962786858053448436e-01
3.778076171875000000e-02 1.757621765136718750e-03 -2.218017578125000000e-01 1.461197628021087547e-01 -7.890059298991877745e-04 -9.892665931832015369e-01
3.884887695312500000e-02 1.757621765136718750e-03 -2.218017578125000000e-01 2.002408344120595873e-01 2.322784771447863883e-02 -9.794713244013401043e-01
3.988647460937500000e-02 1.757621765136718750e-03 -2.218017578125000000e-01 2.815612209303200442e-01 8.977652245819037202e-02 -9.553342110924019082e-01
4.074096679687500000e-02 1.749992370605468750e-03 -2.208251953125000000e-01 3.406400651535684831e-01 1.099500477440645829e-01 -9.337426481709242276e-01
4.177856445312500000e-02 1.749992370605468750e-03 -2.208251953125000000e-01 3.477743688212818762e-01 1.007946002141209690e-01 -9.321445365170757391e-01
4.281616210937500000e-02 1.749992370605468750e-03 -2.208251953125000000e-01 -2.968224183186220499e-01 -8.788479568276240383e-02 9.508799685929261170e-01
4.364013671875000000e-02 1.742362976074218750e-03 -2.198486328125000000e-01 -2.970449878721625470e-01 -7.171535303594971100e-02 9.521665733047742775e-01
4.467773437500000000e-02 1.742362976074218750e-03 -2.198486328125000000e-01 -3.167484964703674577e-01 -9.031918000216380971e-02 9.441995740877553445e-01
4.571533203125000000e-02 1.742362976074218750e-03 -2.198486328125000000e-01 -3.222008198967523107e-01 -3.937066917872723837e-02 9.458523045731186407e-01
4.653930664062500000e-02 1.733779907226562500e-03 -2.187500000000000000e-01 -3.503148788720147899e-01 -2.691513844983519504e-02 9.362451927583455014e-01
4.754638671875000000e-02 1.733779907226562500e-03 -2.187500000000000000e-01 -3.324055975734403479e-01 -1.957830861108387707e-02 9.429333001510622481e-01
4.858398437500000000e-02 1.733779907226562500e-03 -2.187500000000000000e-01 -2.702385607052634753e-01 1.156649190904462596e-02 9.627239150311295290e-01
4.937744140625000000e-02 1.726150512695312500e-03 -2.177734375000000000e-01 -2.231149468672339320e-01 2.807430188203016014e-02 9.743877842308308335e-01
5.041503906250000000e-02 1.726150512695312500e-03 -2.177734375000000000e-01 -2.500411427911296558e-01 7.927397951913811580e-02 9.649844885193259447e-01
5.142211914062500000e-02 1.726150512695312500e-03 -2.177734375000000000e-01 -2.618962504786254142e-01 1.081512321195409604e-01 9.590170305976126741e-01
5.245971679687500000e-02 1.726150512695312500e-03 -2.177734375000000000e-01 -2.040750469457978389e-01 1.384017748587952623e-01 9.691224504313197263e-01
5.346679687500000000e-02 1.726150512695312500e-03 -2.177734375000000000e-01 -1.556094345293985159e-01 1.746856679337230045e-01 9.722502873766558640e-01
5.426025390625000000e-02 1.718521118164062500e-03 -2.167968750000000000e-01 -1.436722644522354375e-01 2.018305197467940570e-01 9.688254340828930111e-01
5.526733398437500000e-02 1.718521118164062500e-03 -2.167968750000000000e-01 -9.268217531900710404e-02 2.466817642012866518e-01 9.646544052605978692e-01
5.627441406250000000e-02 1.718521118164062500e-03 -2.167968750000000000e-01 -4.998534832241646741e-02 2.500710620323653988e-01 9.669363623771172200e-01
5.731201171875000000e-02 1.718521118164062500e-03 -2.167968750000000000e-01 3.281392628619193754e-03 2.498379459379793388e-01 9.682821041576200605e-01
5.831909179687500000e-02 1.718521118164062500e-03 -2.167968750000000000e-01 -7.179652820330941973e-03 2.347434668230758970e-01 9.720308417788310340e-01
5.932617187500000000e-02 1.718521118164062500e-03 -2.167968750000000000e-01 -6.021465517182586838e-03 2.496952676435293950e-01 9.683057447260404738e-01
6.036376953125000000e-02 1.718521118164062500e-03 -2.167968750000000000e-01 1.392506848108099153e-02 2.535766650356199858e-01 9.672150574806049894e-01
6.137084960937500000e-02 1.718521118164062500e-03 -2.167968750000000000e-01 4.944283479751208910e-02 2.440745280547450269e-01 9.684952404849698215e-01
6.240844726562500000e-02 1.718521118164062500e-03 -2.167968750000000000e-01 1.251288185418568122e-01 2.228809057116132863e-01 9.667817130249672930e-01
6.372070312500000000e-02 1.726150512695312500e-03 -2.177734375000000000e-01 1.859266539953850772e-01 2.008311692955741523e-01 9.618202122920128661e-01
6.469726562500000000e-02 1.726150512695312500e-03 -2.177734375000000000e-01 2.177403770948245221e-01 1.731393916803989352e-01 9.605268758505119964e-01
6.573486328125000000e-02 1.726150512695312500e-03 -2.177734375000000000e-01 2.432444092527695778e-01 1.636041491403368298e-01 9.560679054080507555e-01
6.677246093750000000e-02 1.726150512695312500e-03 -2.177734375000000000e-01 2.545895325139507226e-01 1.055116638399428985e-01 9.612759534743676726e-01
6.811523437500000000e-02 1.733779907226562500e-03 -2.187500000000000000e-01 3.277175351159017924e-01 1.674868238772052320e-01 9.298114760558097158e-01
6.915283203125000000e-02 1.733779907226562500e-03 -2.187500000000000000e-01 -3.777919555894072579e-01 -1.581228821673748564e-01 -9.122885466928832843e-01
9.628295898437500000e-03 7.128715515136718750e-04 -2.208251953125000000e-01 3.974928638110333257e-01 -1.099531210445043733e-01 -9.109938168790588930e-01
1.066589355468750000e-02 7.128715515136718750e-04 -2.208251953125000000e-01 3.376781275256173775e-01 -6.401298194417440190e-02 -9.390824353236554289e-01
1.268005371093750000e-02 7.095336914062500000e-04 -2.198486328125000000e-01 2.338860177815161312e-01 6.092778155577397575e-02 -9.703530986816071291e-01
1.371002197265625000e-02 7.095336914062500000e-04 -2.198486328125000000e-01 2.000318218884170884e-01 1.970426571371854119e-01 -9.597715673535647252e-01
1.474761962890625000e-02 7.095336914062500000e-04 -2.198486328125000000e-01 1.610997514536211539e-01 2.061519423473738843e-01 -9.651674708297970362e-01
1.577758789062500000e-02 7.095336914062500000e-04 -2.198486328125000000e-01 1.030016196910148729e-01 2.787967210806351348e-01 -9.548104810148002608e-01
1.679992675781250000e-02 7.095336914062500000e-04 -2.198486328125000000e-01 3.049624465386667482e-03 2.383126452515795246e-01 -9.711837019348172895e-01
1.783752441406250000e-02 7.095336914062500000e-04 -2.198486328125000000e-01 -1.286402266308855902e-01 2.331446997676828170e-01 -9.638958662960390722e-01
1.887512207031250000e-02 7.095336914062500000e-04 -2.198486328125000000e-01 2.009582639223204126e-01 -2.169488245573334140e-01 9.552742976153594245e-01
1.989746093750000000e-02 7.095336914062500000e-04 -2.198486328125000000e-01 -2.094695705044956335e-01 2.007712890884124080e-01 -9.569813940252126505e-01
2.093505859375000000e-02 7.095336914062500000e-04 -2.198486328125000000e-01 2.120991790835103918e-01 -1.951827385912173474e-01 9.575581636580274836e-01
2.206420898437500000e-02 7.128715515136718750e-04 -2.208251953125000000e-01 -2.051653791907574742e-01 1.541277184053519989e-01 -9.665152940335053344e-01
2.310180664062500000e-02 7.128715515136718750e-04 -2.208251953125000000e-01 -2.039569978484857271e-01 1.498176069019674650e-01 -9.674483075031969914e-01
2.413940429687500000e-02 7.128715515136718750e-04 -2.208251953125000000e-01 -2.118577256555675969e-01 1.357243673183406163e-01 -9.678301504892722340e-01
2.517700195312500000e-02 7.128715515136718750e-04 -2.208251953125000000e-01 -2.019030253757680415e-01 1.380586655699893583e-01 -9.696262028251639853e-01
4.177856445312500000e-02 7.128715515136718750e-04 -2.208251953125000000e-01 3.121499328264774054e-01 1.066613587720812717e-01 -9.440263629694453096e-01
4.281616210937500000e-02 7.128715515136718750e-04 -2.208251953125000000e-01 3.186030163373455570e-01 1.326120522206801766e-01 -9.385660134410178657e-01
4.364013671875000000e-02 7.095336914062500000e-04 -2.198486328125000000e-01 3.005412512290484561e-01 8.711245338793750792e-02 -9.497822786167428033e-01
4.467773437500000000e-02 7.095336914062500000e-04 -2.198486328125000000e-01 3.248432766198255384e-01 7.424968246365061531e-02 -9.428487844235373672e-01
4.571533203125000000e-02 7.095336914062500000e-04 -2.198486328125000000e-01 3.258932146319222234e-01 4.871042216687505866e-02 -9.441508922991054265e-01
4.653930664062500000e-02 7.061958312988281250e-04 -2.187500000000000000e-01 -3.205519451343420978e-01 -5.924526396864456673e-02 9.453763531884407101e-01
4.754638671875000000e-02 7.061958312988281250e-04 -2.187500000000000000e-01 -3.350972999743230263e-01 -4.052693844757396940e-02 9.413115142236311295e-01
4.858398437500000000e-02 7.061958312988281250e-04 -2.187500000000000000e-01 -3.041218269343514691e-01 -4.624952430693959199e-02 9.515097981016770179e-01
4.937744140625000000e-02 7.033348083496093750e-04 -2.177734375000000000e-01 -2.469992229169789000e-01 -1.897139026577617307e-02 9.688299490776450806e-01
5.041503906250000000e-02 7.033348083496093750e-04 -2.177734375000000000e-01 -2.812540357621106102e-01 -1.129544489155824560e-02 9.595668711935750883e-01
5.142211914062500000e-02 7.033348083496093750e-04 -2.177734375000000000e-01 -2.699739017125039053e-01 2.738327902313738779e-02 9.624781807522019283e-01
5.245971679687500000e-02 7.033348083496093750e-04 -2.177734375000000000e-01 -2.074546645253301791e-01 7.255679853035107429e-02 9.755501387185123718e-01
5.322265625000000000e-02 6.999969482421875000e-04 -2.167968750000000000e-01 -2.103790234871299458e-01 1.061605834012181310e-01 9.718387710976109650e-01
5.426025390625000000e-02 6.999969482421875000e-04 -2.167968750000000000e-01 -1.903535694684611590e-01 1.345678577102601969e-01 9.724489756598476697e-01
5.526733398437500000e-02 6.999969482421875000e-04 -2.167968750000000000e-01 -1.161360795672952279e-01 1.689316247097022161e-01 9.787617264664976169e-01
5.627441406250000000e-02 6.999969482421875000e-04 -2.167968750000000000e-01 -3.149067690700199651e-02 1.559987505878480951e-01 9.872551479141392639e-01
5.731201171875000000e-02 6.999969482421875000e-04 -2.167968750000000000e-01 -2.580265623340758339e-03 1.455704463737861609e-01 9.893445241026249670e-01
5.831909179687500000e-02 6.999969482421875000e-04 -2.167968750000000000e-01 -4.752018278709443759e-03 1.356901393611936457e-01 9.907399277320051434e-01
5.932617187500000000e-02 6.999969482421875000e-04 -2.167968750000000000e-01 3.149097259496660278e-03 1.393067552231566919e-01 9.902442684184775690e-01
6.036376953125000000e-02 6.999969482421875000e-04 -2.167968750000000000e-01 5.521510425016935147e-03 1.525853486666141900e-01 9.882748728440454711e-01
6.137084960937500000e-02 6.999969482421875000e-04 -2.167968750000000000e-01 9.523158149637542258e-02 1.132513314253805747e-01 9.889919523515233735e-01
6.240844726562500000e-02 6.999969482421875000e-04 -2.167968750000000000e-01 1.860968932553555277e-01 9.262318567117737433e-02 9.781558627319203447e-01
6.341552734375000000e-02 6.999969482421875000e-04 -2.167968750000000000e-01 2.175259189019174144e-01 6.423962663132030959e-02 9.739382654851100884e-01
6.469726562500000000e-02 7.033348083496093750e-04 -2.177734375000000000e-01 2.612651061486981896e-01 6.145676677263989252e-02 9.633086785277930053e-01
6.573486328125000000e-02 7.033348083496093750e-04 -2.177734375000000000e-01 2.959318080568468790e-01 3.997661351200152563e-02 9.543721681568032578e-01
6.677246093750000000e-02 7.033348083496093750e-04 -2.177734375000000000e-01 2.803606153474332841e-01 -1.858515842501158718e-03 9.598929478232828272e-01
6.811523437500000000e-02 7.061958312988281250e-04 -2.187500000000000000e-01 -3.105592391227435245e-01 -3.806147102748494437e-02 -9.497917052800188831e-01
6.915283203125000000e-02 7.061958312988281250e-04 -2.187500000000000000e-01 -3.570546190396749475e-01 -7.695020995148942056e-02 -9.309085154894941594e-01
1.679992675781250000e-02 -3.225803375244140625e-04 -2.198486328125000000e-01 -6.930150000442378277e-03 3.452190802283802151e-01 -9.384965421711700673e-01
1.783752441406250000e-02 -3.225803375244140625e-04 -2.198486328125000000e-01 -1.016568657040850809e-01 2.885309063518889938e-01 -9.520587154871170688e-01
1.887512207031250000e-02 -3.225803375244140625e-04 -2.198486328125000000e-01 -1.650151864445595085e-01 2.372370603428257396e-01 -9.573340929072579053e-01
1.989746093750000000e-02 -3.225803375244140625e-04 -2.198486328125000000e-01 -1.980383390999481685e-01 1.996333729073850871e-01 -9.596495884791255149e-01
2.102661132812500000e-02 -3.240108489990234375e-04 -2.208251953125000000e-01 -1.994971635608640548e-01 2.181173265918119331e-01 -9.553144579517316437e-01
