-6.786346435546875000e-03 5.307006835937500000e-02 -2.529296875000000000e-01 -3.491918807696093863e-01 -1.326774623919588780e-01 -9.276107596280960266e-01
-7.415771484375000000e-02 5.169677734375000000e-02 -2.519531250000000000e-01 4.507554703202781288e-01 -3.910996738738986567e-02 -8.917902872465599540e-01
-7.299804687500000000e-02 5.169677734375000000e-02 -2.519531250000000000e-01 4.461785941176475978e-01 -5.072716135732377452e-02 -8.935051299527205781e-01
-7.153320312500000000e-02 5.148315429687500000e-02 -2.509765625000000000e-01 3.976424498787197725e-01 -2.382638385560881256e-02 -9.172310425878612561e-01
-7.037353515625000000e-02 5.148315429687500000e-02 -2.509765625000000000e-01 -3.822205648865710792e-01 2.568982860219674869e-02 9.237139559864734339e-01
-6.890869140625000000e-02 5.126953125000000000e-02 -2.498779296875000000e-01 -3.448935524953778975e-01 -4.104156065115567749e-03 9.386328320222510069e-01
-6.774902343750000000e-02 5.126953125000000000e-02 -2.498779296875000000e-01 -3.551231755605196438e-01 -4.309313475682789718e-02 9.338257395877681555e-01
-6.628417968750000000e-02 5.105590820312500000e-02 -2.489013671875000000e-01 -2.314750867744033436e-01 -6.187993360233491613e-02 9.708708245797446068e-01
-6.512451171875000000e-02 5.105590820312500000e-02 -2.489013671875000000e-01 -2.622248270636261536e-01 -5.448088198894928541e-02 9.634676816422840240e-01
-6.396484375000000000e-02 5.105590820312500000e-02 -2.489013671875000000e-01 -2.363633683976115452e-01 -2.975983161164352797e-02 9.712088912804400787e-01
-6.250000000000000000e-02 5.087280273437500000e-02 -2.479248046875000000e-01 -2.460861061436065145e-01 -3.046440182293879209e-02 9.687690894039963085e-01
-6.137084960937500000e-02 5.087280273437500000e-02 -2.479248046875000000e-01 -2.537821277063986858e-01 9.666967785160514998e-03 9.672131002993362703e-01
-6.021118164062500000e-02 5.087280273437500000e-02 -2.479248046875000000e-01 -1.948692213788947025e-01 1.533188202854127505e-02 9.807093962803896670e-01
-5.880737304687500000e-02 5.065917968750000000e-02 -2.469482421875000000e-01 -2.108876829341380099e-01 2.856313150218909788e-02 9.770928987079269268e-01
-5.764770507812500000e-02 5.065917968750000000e-02 -2.469482421875000000e-01 -2.929940178765173542e-01 7.405502468609058420e-02 9.532420253048633496e-01
-5.648803710937500000e-02 5.065917968750000000e-02 -2.469482421875000000e-01 -2.917338730730845708e-01 1.034153193121729181e-01 9.508925381100319374e-01
-5.508422851562500000e-02 5.044555664062500000e-02 -2.458496093750000000e-01 -2.243823447407316818e-01 8.892719335939811010e-02 9.704352207385466000e-01
-5.395507812500000000e-02 5.044555664062500000e-02 -2.458496093750000000e-01 -1.776009968826835483e-01 1.244179364886536798e-01 9.762059531605931095e-01
-5.279541015625000000e-02 5.044555664062500000e-02 -2.458496093750000000e-01 -1.581013743696406959e-01 1.615936858205289928e-01 9.741105872155209067e-01
-5.163574218750000000e-02 5.044555664062500000e-02 -2.458496093750000000e-01 -1.445041364223884628e-01 1.700338048277941216e-01 9.747856481158324593e-01
-5.047607421875000000e-02 5.044555664062500000e-02 -2.458496093750000000e-01 -1.616256859981175242e-01 1.819857747132182790e-01 9.699269639656727948e-01
-4.913330078125000000e-02 5.023193359375000000e-02 -2.448730468750000000e-01 -1.722283640942726679e-01 1.895470276539292231e-01 9.666484960465057119e-01
-4.797363281250000000e-02 5.023193359375000000e-02 -2.448730468750000000e-01 -1.552762149289213800e-01 2.343682537798494336e-01 9.596670353291976152e-01
-4.681396484375000000e-02 5.023193359375000000e-02 -2.448730468750000000e-01 -1.535721023158717058e-01 2.769675062319673642e-01 9.485276010121838075e-01
-4.568481445312500000e-02 5.023193359375000000e-02 -2.448730468750000000e-01 -1.358073261777125729e-01 3.174040111164373457e-01 9.385153509046385567e-01
-4.452514648437500000e-02 5.023193359375000000e-02 -2.448730468750000000e-01 -1.258945048399231492e-01 3.717423463042281440e-01 9.197598608415883392e-01
-4.318237304687500000e-02 5.004882812500000000e-02 -2.438964843750000000e-01 -1.249632531195305485e-01 4.271798842567574028e-01 8.954895487140916988e-01
-4.205322265625000000e-02 5.004882812500000000e-02 -2.438964843750000000e-01 -9.399179030424861803e-02 4.641065930779247339e-01 8.807784134599370152e-01
-4.089355468750000000e-02 5.004882812500000000e-02 -2.438964843750000000e-01 -9.047644656048489664e-02 5.104568135730243039e-01 8.551303141011096232e-01
-3.976440429687500000e-02 5.004882812500000000e-02 -2.438964843750000000e-01 -4.958025861758208475e-02 5.502129292230928392e-01 8.335511564812069230e-01
-3.860473632812500000e-02 5.004882812500000000e-02 -2.438964843750000000e-01 -3.063177170938663832e-02 5.693453966511626829e-01 8.215275490658083823e-01
-3.747558593750000000e-02 5.004882812500000000e-02 -2.438964843750000000e-01 -1.518837599805153774e-04 5.855645842641272747e-01 8.106257426130157873e-01
-3.631591796875000000e-02 5.004882812500000000e-02 -2.438964843750000000e-01 -1.516774964840237249e-04 5.855650022661444964e-01 8.106254407030335507e-01
-3.518676757812500000e-02 5.004882812500000000e-02 -2.438964843750000000e-01 -1.542275869558178787e-04 5.855653983011821495e-01 8.106251541410673944e-01
-3.402709960937500000e-02 5.004882812500000000e-02 -2.438964843750000000e-01 -1.589485088881690004e-04 5.855656011413797879e-01 8.106250067048917929e-01
-3.286743164062500000e-02 5.004882812500000000e-02 -2.438964843750000000e-01 -1.558800527309625865e-04 5.855660375558296993e-01 8.106246920508737297e-01
-3.173828125000000000e-02 5.004882812500000000e-02 -2.438964843750000000e-01 -1.552960462607722296e-04 5.855663701862652282e-01 8.106244518826334344e-01
-3.059387207031250000e-02 5.004882812500000000e-02 -2.438964843750000000e-01 -1.550466333617706559e-04 5.855666971149598998e-01 8.106242157685756844e-01
-2.944946289062500000e-02 5.004882812500000000e-02 -2.438964843750000000e-01 1.715767199470804097e-02 5.821036036032897210e-01 8.129335821355802016e-01
-2.830505371093750000e-02 5.004882812500000000e-02 -2.438964843750000000e-01 7.707977535907249711e-02 5.735855723341253265e-01 8.155110664121786312e-01
-2.716064453125000000e-02 5.004882812500000000e-02 -2.438964843750000000e-01 1.149140320428603951e-01 5.592420154138419974e-01 8.210012992897860462e-01
-2.601623535156250000e-02 5.004882812500000000e-02 -2.438964843750000000e-01 1.480877681573752880e-01 5.458014617996134188e-01 8.247246675221812096e-01
-2.497863769531250000e-02 5.023193359375000000e-02 -2.448730468750000000e-01 1.963776606283528514e-01 5.447082227227380002e-01 8.153090006275973689e-01
-2.381896972656250000e-02 5.023193359375000000e-02 -2.448730468750000000e-01 2.269990753513858317e-01 5.291610294126288805e-01 8.175940464194824120e-01
-2.267456054687500000e-02 5.023193359375000000e-02 -2.448730468750000000e-01 2.799862536802750212e-01 5.150995003864942134e-01 8.101112284443838796e-01
-2.160644531250000000e-02 5.044555664062500000e-02 -2.458496093750000000e-01 3.327854599327936813e-01 4.948278611538445837e-01 8.027448071979228494e-01
-2.044677734375000000e-02 5.044555664062500000e-02 -2.458496093750000000e-01 4.114090699772762760e-01 4.692714016789830134e-01 7.813622263116352107e-01
-1.937866210937500000e-02 5.065917968750000000e-02 -2.469482421875000000e-01 4.661865561173910155e-01 4.122288718654251172e-01 7.827754800043021932e-01
-1.829528808593750000e-02 5.087280273437500000e-02 -2.479248046875000000e-01 4.756863890917594206e-01 4.073871807179998417e-01 7.795884454117332218e-01
-1.719665527343750000e-02 5.105590820312500000e-02 -2.489013671875000000e-01 5.173514715121689811e-01 3.785966047602772888e-01 7.674712149573974518e-01
-1.609802246093750000e-02 5.126953125000000000e-02 -2.498779296875000000e-01 4.980575370836702320e-01 3.546809550684791312e-01 7.912901552944153760e-01
-1.492309570312500000e-02 5.126953125000000000e-02 -2.498779296875000000e-01 4.486286793176155752e-01 3.772940049679580632e-01 8.101737726617483926e-01
-1.380157470703125000e-02 5.148315429687500000e-02 -2.509765625000000000e-01 3.826335171033459770e-01 3.081208194723303873e-01 8.710069759748328977e-01
-1.267242431640625000e-02 5.169677734375000000e-02 -2.519531250000000000e-01 3.194781439459301597e-01 2.660039612128095032e-01 9.094919505745818755e-01
-1.148986816406250000e-02 5.169677734375000000e-02 -2.519531250000000000e-01 -2.616876448520579213e-01 -2.693606499677143606e-01 -9.268033323099100773e-01
-1.030731201171875000e-02 5.169677734375000000e-02 -2.519531250000000000e-01 -2.487096759333084772e-01 -2.439473457833115089e-01 -9.373543564642058401e-01
-7.153320312500000000e-02 5.029296875000000000e-02 -2.509765625000000000e-01 3.683463581914865337e-01 -3.184658054574213137e-02 -9.291430222062762034e-01
-7.037353515625000000e-02 5.029296875000000000e-02 -2.509765625000000000e-01 3.620348842662019506e-01 3.016144520542635155e-03 -9.321596673567190683e-01
-6.890869140625000000e-02 5.010986328125000000e-02 -2.498779296875000000e-01 -3.351010264383533221e-01 -2.639604511361286210e-02 9.418123756260171620e-01
-6.774902343750000000e-02 5.010986328125000000e-02 -2.498779296875000000e-01 -3.008770920732280474e-01 -3.838217534787074364e-02 9.528902266689083245e-01
-6.628417968750000000e-02 4.989624023437500000e-02 -2.489013671875000000e-01 -2.205741165142327542e-01 -4.398001955851615213e-02 9.743781694001555360e-01
-6.512451171875000000e-02 4.989624023437500000e-02 -2.489013671875000000e-01 -2.584831014826666218e-01 -4.570426818585939660e-02 9.649339905493518055e-01
-6.396484375000000000e-02 4.989624023437500000e-02 -2.489013671875000000e-01 -2.591916073909379947e-01 -6.815651128352476218e-02 9.634180819497631942e-01
-6.250000000000000000e-02 4.968261718750000000e-02 -2.479248046875000000e-01 -2.312633154183666440e-01 -5.620442900402463499e-02 9.712663595029102925e-01
-6.137084960937500000e-02 4.968261718750000000e-02 -2.479248046875000000e-01 -2.498394786029041192e-01 -5.361503421528637098e-02 9.668017702908504596e-01
-6.021118164062500000e-02 4.968261718750000000e-02 -2.479248046875000000e-01 -2.382410481450145945e-01 -3.118925657886490940e-02 9.707051216784747805e-01
-5.880737304687500000e-02 4.949951171875000000e-02 -2.469482421875000000e-01 -2.315738507771160914e-01 -3.763842885265788942e-03 9.728100457555899361e-01
-5.764770507812500000e-02 4.949951171875000000e-02 -2.469482421875000000e-01 -3.136029347890814667e-01 1.226588584364935938e-02 9.494749851028966292e-01
-5.648803710937500000e-02 4.949951171875000000e-02 -2.469482421875000000e-01 -3.094547737465460635e-01 2.051236307305792476e-03 9.509119493597111283e-01
-5.508422851562500000e-02 4.928588867187500000e-02 -2.458496093750000000e-01 -2.341017769920485103e-01 -4.253848577526760100e-02 9.712810279404783254e-01
-5.395507812500000000e-02 4.928588867187500000e-02 -2.458496093750000000e-01 -2.357556503942931925e-01 -2.515327402869646164e-02 9.714867915277083377e-01
-5.279541015625000000e-02 4.928588867187500000e-02 -2.458496093750000000e-01 -2.187681983613817271e-01 4.687696969883498911e-03 9.757655973044109254e-01
-5.163574218750000000e-02 4.928588867187500000e-02 -2.458496093750000000e-01 -1.377566011273098634e-01 2.655171778913842373e-02 9.901101580775227839e-01
-5.026245117187500000e-02 4.910278320312500000e-02 -2.448730468750000000e-01 -1.992816151835476446e-01 7.338806688713257753e-02 9.771903752536689192e-01
-4.913330078125000000e-02 4.910278320312500000e-02 -2.448730468750000000e-01 -2.247508322145569393e-01 1.127433020451285989e-01 9.678718981677405520e-01
-4.797363281250000000e-02 4.910278320312500000e-02 -2.448730468750000000e-01 -2.065066351097565867e-01 1.713574399357843392e-01 9.633232258355965971e-01
-4.681396484375000000e-02 4.910278320312500000e-02 -2.448730468750000000e-01 -1.827409594234171153e-01 2.027298931553433436e-01 9.620323966323754972e-01
-4.547119140625000000e-02 4.888916015625000000e-02 -2.438964843750000000e-01 -2.094057041087993565e-01 2.654481915671764725e-01 9.411091906258346462e-01
-4.434204101562500000e-02 4.888916015625000000e-02 -2.438964843750000000e-01 -1.952613958292849505e-01 3.123132226788997157e-01 9.296953470028336275e-01
-4.318237304687500000e-02 4.888916015625000000e-02 -2.438964843750000000e-01 -1.762217857798275000e-01 3.642683635129980169e-01 9.144694864018868552e-01
-4.205322265625000000e-02 4.888916015625000000e-02 -2.438964843750000000e-01 -1.698030190785232429e-01 4.235237006078662603e-01 8.898284158955800383e-01
-4.074096679687500000e-02 4.867553710937500000e-02 -2.429199218750000000e-01 -1.432299586073754738e-01 4.638545225299462449e-01 8.742563473523340400e-01
-3.958129882812500000e-02 4.867553710937500000e-02 -2.429199218750000000e-01 -1.031550293821759390e-01 5.166365354301227786e-01 8.499680759722225698e-01
-3.845214843750000000e-02 4.867553710937500000e-02 -2.429199218750000000e-01 -7.373610537029966217e-02 5.512823552012514616e-01 8.310540004166883099e-01
-3.732299804687500000e-02 4.867553710937500000e-02 -2.429199218750000000e-01 -4.232410722767274147e-02 5.702465365828567334e-01 8.203825677466808353e-01
-3.616333007812500000e-02 4.867553710937500000e-02 -2.429199218750000000e-01 -1.543495178090663854e-02 5.868376277005310504e-01 8.095575093706031122e-01
-3.503417968750000000e-02 4.867553710937500000e-02 -2.429199218750000000e-01 9.572075467643567301e-04 5.960661042825727840e-01 8.029347937903236199e-01
-3.387451171875000000e-02 4.867553710937500000e-02 -2.429199218750000000e-01 -5.078094589479489971e-04 5.975208436921578548e-01 8.018532181658719615e-01
-3.274536132812500000e-02 4.867553710937500000e-02 -2.429199218750000000e-01 -4.900985622648138191e-04 5.975223523144432836e-01 8.018521049969338232e-01
-3.161621093750000000e-02 4.867553710937500000e-02 -2.429199218750000000e-01 9.775346640012473869e-04 5.960593293905863677e-01 8.029397986601642945e-01
-3.047180175781250000e-02 4.867553710937500000e-02 -2.429199218750000000e-01 9.803709285573160466e-04 5.960568606019253091e-01 8.029416278922268946e-01
-2.932739257812500000e-02 4.867553710937500000e-02 -2.429199218750000000e-01 4.896382280314043323e-02 5.830039934554284153e-01 8.109925324388168599e-01
-2.818298339843750000e-02 4.867553710937500000e-02 -2.429199218750000000e-01 9.970139067636563102e-02 5.687298201075484672e-01 8.164594444414458030e-01
-2.705383300781250000e-02 4.867553710937500000e-02 -2.429199218750000000e-01 1.286116168273282179e-01 5.634612638117376671e-01 8.160701294623764479e-01
-2.601623535156250000e-02 4.888916015625000000e-02 -2.438964843750000000e-01 1.520025111323324851e-01 5.518702540231381626e-01 8.199600352053153518e-01
-2.487182617187500000e-02 4.888916015625000000e-02 -2.438964843750000000e-01 1.865241107541542320e-01 5.376747292717782845e-01 8.222619057270572629e-01
-2.372741699218750000e-02 4.888916015625000000e-02 -2.438964843750000000e-01 2.346063702744177470e-01 5.422243158812660724e-01 8.068163621876763836e-01
-2.258300781250000000e-02 4.888916015625000000e-02 -2.438964843750000000e-01 3.032728097582044757e-01 4.992843005437008208e-01 8.116284803356466071e-01
-2.151489257812500000e-02 4.910278320312500000e-02 -2.448730468750000000e-01 3.716946588774877602e-01 4.884413648006236675e-01 7.894733141238228225e-01
-2.044677734375000000e-02 4.928588867187500000e-02 -2.458496093750000000e-01 4.348962823777874354e-01 4.780292749212770587e-01 7.631207217028102008e-01
-1.930236816406250000e-02 4.928588867187500000e-02 -2.458496093750000000e-01 4.671926910345383654e-01 4.635973174261386331e-01 7.528668652020716889e-01
-1.821899414062500000e-02 4.949951171875000000e-02 -2.469482421875000000e-01 5.013004945784390598e-01 4.137783640478868707e-01 7.599245222923568521e-01
-1.712036132812500000e-02 4.968261718750000000e-02 -2.479248046875000000e-01 5.000938295282878476e-01 4.017027473781589753e-01 7.671643007964920047e-01
-1.602172851562500000e-02 4.989624023437500000e-02 -2.489013671875000000e-01 4.684545173263113260e-01 4.194931838574484373e-01 7.775447471970431401e-01
-1.492309570312500000e-02 5.010986328125000000e-02 -2.498779296875000000e-01 4.449514077278339252e-01 4.290412892753199814e-01 7.860927533427528591e-01
-1.380157470703125000e-02 5.029296875000000000e-02 -2.509765625000000000e-01 3.697173821424576956e-01 3.994940578420461130e-01 8.388763646036427879e-01
-1.262664794921875000e-02 5.029296875000000000e-02 -2.509765625000000000e-01 -3.278361395561386615e-01 -4.036662473475958191e-01 -8.541528120618917530e-01
-1.144409179687500000e-02 5.029296875000000000e-02 -2.509765625000000000e-01 -2.781779826226531971e-01 -3.679300781936068465e-01 -8.872679795554656579e-01
-6.890869140625000000e-02 4.891967773437500000e-02 -2.498779296875000000e-01 3.316671517637098110e-01 2.452825568131458689e-02 -9.430775498940582313e-01
-6.774902343750000000e-02 4.891967773437500000e-02 -2.498779296875000000e-01 -2.777672380232238947e-01 2.769434556758787816e-03 9.606444148139234862e-01
-6.652832031250000000e-02 4.891967773437500000e-02 -2.498779296875000000e-01 -2.305485426309531460e-01 -1.402638239555142191e-02 9.729597268580223446e-01
-6.512451171875000000e-02 4.873657226562500000e-02 -2.489013671875000000e-01 -2.531855234269604349e-01 -5.389829232918795510e-02 9.659151436906936450e-01
-6.396484375000000000e-02 4.873657226562500000e-02 -2.489013671875000000e-01 -2.606159003336968594e-01 -4.967714016336930577e-02 9.641636449474982884e-01
-6.274414062500000000e-02 4.873657226562500000e-02 -2.489013671875000000e-01 -2.210839118273805470e-01 -4.783673145670132298e-02 9.740808750071229261e-01
-6.137084960937500000e-02 4.852294921875000000e-02 -2.479248046875000000e-01 -2.508437500667065057e-01 -4.569635294230232209e-02 9.669484248812053595e-01
-6.021118164062500000e-02 4.852294921875000000e-02 -2.479248046875000000e-01 -2.635298818431253687e-01 -4.593859085257085556e-02 9.635567690832899101e-01
-5.905151367187500000e-02 4.852294921875000000e-02 -2.479248046875000000e-01 -2.327318175902349240e-01 -3.179854597380752518e-02 9.720209635368454171e-01
-5.764770507812500000e-02 4.833984375000000000e-02 -2.469482421875000000e-01 -3.078802986200691594e-01 -5.726337001628654944e-02 9.497002833399571520e-01
-5.648803710937500000e-02 4.833984375000000000e-02 -2.469482421875000000e-01 -2.819318137442700656e-01 -6.115688027980459296e-02 9.574833097204921151e-01
-5.508422851562500000e-02 4.812622070312500000e-02 -2.458496093750000000e-01 -2.214541406610074092e-01 -1.089745553979238890e-01 9.690627481540704524e-01
-5.395507812500000000e-02 4.812622070312500000e-02 -2.458496093750000000e-01 -2.349365196296147595e-01 -8.444250287521259946e-02 9.683358381535268622e-01
-5.279541015625000000e-02 4.812622070312500000e-02 -2.458496093750000000e-01 -1.977316469681966449e-01 -5.094881675676284777e-02 9.789312610486653465e-01
-5.163574218750000000e-02 4.812622070312500000e-02 -2.458496093750000000e-01 -1.993741884851086277e-01 -4.247170356065707586e-02 9.790025982409648053e-01
-5.026245117187500000e-02 4.794311523437500000e-02 -2.448730468750000000e-01 -2.533287171885678646e-01 -6.607683574650953170e-03 9.673576895675001230e-01
-4.913330078125000000e-02 4.794311523437500000e-02 -2.448730468750000000e-01 -2.815147973121053804e-01 4.364531586584240869e-02 9.585637721598364580e-01
-4.797363281250000000e-02 4.794311523437500000e-02 -2.448730468750000000e-01 -2.516534525110951104e-01 9.743715923906669241e-02 9.629000674206367183e-01
-4.663085937500000000e-02 4.772949218750000000e-02 -2.438964843750000000e-01 -2.631249849459617596e-01 1.574969024543358964e-01 9.518192937813757526e-01
-4.547119140625000000e-02 4.772949218750000000e-02 -2.438964843750000000e-01 -2.645392146207907746e-01 2.298178172640605033e-01 9.365910392459443345e-01
-4.434204101562500000e-02 4.772949218750000000e-02 -2.438964843750000000e-01 -2.550280850158541668e-01 2.966811168008338662e-01 9.202939697656159490e-01
-4.302978515625000000e-02 4.754638671875000000e-02 -2.429199218750000000e-01 -2.370276571436583102e-01 3.321844319557573644e-01 9.129465443908635347e-01
-4.187011718750000000e-02 4.754638671875000000e-02 -2.429199218750000000e-01 -2.224692327746981557e-01 3.828513989646359916e-01 8.966226891951029065e-01
-4.074096679687500000e-02 4.754638671875000000e-02 -2.429199218750000000e-01 -1.964848125094885989e-01 4.421531834706880493e-01 8.751538612151849028e-01
-3.942871093750000000e-02 4.736328125000000000e-02 -2.419433593750000000e-01 -1.537751810200747304e-01 4.880982017467255796e-01 8.591352275130242910e-01
-3.829956054687500000e-02 4.736328125000000000e-02 -2.419433593750000000e-01 -1.073288964117123379e-01 5.139917719607797197e-01 8.510540325688267238e-01
-3.717041015625000000e-02 4.736328125000000000e-02 -2.419433593750000000e-01 -6.770410398283512043e-02 5.504063825820479927e-01 8.321472035143936408e-01
-3.601074218750000000e-02 4.736328125000000000e-02 -2.419433593750000000e-01 -3.646767754415210228e-02 5.745308420876782396e-01 8.176701168469833192e-01
-3.488159179687500000e-02 4.736328125000000000e-02 -2.419433593750000000e-01 -1.082885951188047174e-02 5.944952241839661644e-01 8.040262211048391228e-01
-3.375244140625000000e-02 4.736328125000000000e-02 -2.419433593750000000e-01 1.151980073594422967e-04 6.056981327836870044e-01 7.956945134106268025e-01
-3.262329101562500000e-02 4.736328125000000000e-02 -2.419433593750000000e-01 1.241013201460296916e-04 6.056980559558267085e-01 7.956945705546786263e-01
-3.146362304687500000e-02 4.736328125000000000e-02 -2.419433593750000000e-01 1.176958631070168103e-04 6.056976543489467346e-01 7.956948772386733815e-01
-3.034973144531250000e-02 4.736328125000000000e-02 -2.419433593750000000e-01 3.194662393005223699e-02 5.916525142199098308e-01 8.055598771269155689e-01
-2.920532226562500000e-02 4.736328125000000000e-02 -2.419433593750000000e-01 8.841258142879769577e-02 5.803801406675214158e-01 8.095320301037164379e-01
-2.807617187500000000e-02 4.736328125000000000e-02 -2.419433593750000000e-01 1.215364461809001623e-01 5.644235057131486988e-01 8.164894356010961030e-01
-2.693176269531250000e-02 4.736328125000000000e-02 -2.419433593750000000e-01 1.485532418694649193e-01 5.501319479743155272e-01 8.217583429135704165e-01
-2.590942382812500000e-02 4.754638671875000000e-02 -2.429199218750000000e-01 1.735023555251857530e-01 5.399535156041156414e-01 8.236183179203629967e-01
-2.476501464843750000e-02 4.754638671875000000e-02 -2.429199218750000000e-01 1.936093608017224466e-01 5.327024094990699954e-01 8.238589432201568474e-01
-2.362060546875000000e-02 4.754638671875000000e-02 -2.429199218750000000e-01 2.456767593945976269e-01 5.103273344183273386e-01 8.241413359605581634e-01
-2.258300781250000000e-02 4.772949218750000000e-02 -2.438964843750000000e-01 2.959149559655225858e-01 5.038039235166393848e-01 8.115515667443214953e-01
-2.143859863281250000e-02 4.772949218750000000e-02 -2.438964843750000000e-01 3.846166083092388277e-01 4.623706905470275075e-01 7.989264103381252813e-01
-2.037048339843750000e-02 4.794311523437500000e-02 -2.448730468750000000e-01 4.497345983215810805e-01 4.441448634361909731e-01 7.749026592777789046e-01
-1.930236816406250000e-02 4.812622070312500000e-02 -2.458496093750000000e-01 4.965004971020983149e-01 4.261911949616088990e-01 7.562065337687615685e-01
-1.821899414062500000e-02 4.833984375000000000e-02 -2.469482421875000000e-01 4.934934715321829257e-01 4.487733002061620180e-01 7.450279985189712795e-01
-1.705932617187500000e-02 4.833984375000000000e-02 -2.469482421875000000e-01 4.968879105444861666e-01 4.442887657656782174e-01 7.454595206777796523e-01
-1.596069335937500000e-02 4.852294921875000000e-02 -2.479248046875000000e-01 4.742070792856886707e-01 4.352535753141792418e-01 7.652986156602927803e-01
-1.486206054687500000e-02 4.873657226562500000e-02 -2.489013671875000000e-01 4.389732985156618583e-01 4.317888392826890187e-01 7.879472326629415324e-01
-1.374816894531250000e-02 4.891967773437500000e-02 -2.498779296875000000e-01 -3.828519026106891876e-01 -4.597383522600189121e-01 -8.012896281174602953e-01
-1.257324218750000000e-02 4.891967773437500000e-02 -2.498779296875000000e-01 -3.579070970317678180e-01 -4.608020316392216764e-01 -8.121354551621663420e-01
-7.006835937500000000e-02 4.776000976562500000e-02 -2.498779296875000000e-01 3.339955882545189159e-01 2.897515389304161637e-03 -9.425701838224498363e-01
-6.890869140625000000e-02 4.776000976562500000e-02 -2.498779296875000000e-01 2.949656395409609999e-01 1.927190718272464576e-03 -9.555059170021540371e-01
-6.774902343750000000e-02 4.776000976562500000e-02 -2.498779296875000000e-01 2.656326853492986251e-01 1.146636722389854368e-02 -9.640061197403299031e-01
-6.652832031250000000e-02 4.776000976562500000e-02 -2.498779296875000000e-01 -2.231495283514317862e-01 -3.023537865437690014e-02 9.743152004737275496e-01
-6.512451171875000000e-02 4.754638671875000000e-02 -2.489013671875000000e-01 2.631117891426882349e-01 2.561509854971964761e-02 -9.644252449725807530e-01
-6.396484375000000000e-02 4.754638671875000000e-02 -2.489013671875000000e-01 2.644092608106747844e-01 1.468984731624092821e-02 -9.642986835951703473e-01
-6.274414062500000000e-02 4.754638671875000000e-02 -2.489013671875000000e-01 -2.280229749484182500e-01 -5.749499039679866093e-03 9.736387760131914870e-01
-6.137084960937500000e-02 4.736328125000000000e-02 -2.479248046875000000e-01 -2.494836050724623389e-01 -4.021380769099048430e-02 9.675436840117555004e-01
-6.021118164062500000e-02 4.736328125000000000e-02 -2.479248046875000000e-01 -2.733897017780982375e-01 -3.517907711349990696e-02 9.612598522226574183e-01
-5.905151367187500000e-02 4.736328125000000000e-02 -2.479248046875000000e-01 -2.508504610387446987e-01 -3.977470378693892528e-02 9.672083638675332828e-01
-5.764770507812500000e-02 4.718017578125000000e-02 -2.469482421875000000e-01 -2.579599388091000645e-01 -6.486971199451514736e-02 9.639754096632102698e-01
-5.648803710937500000e-02 4.718017578125000000e-02 -2.469482421875000000e-01 -2.725231918514729457e-01 -7.909275723322119200e-02 9.588928228203253967e-01
-5.532836914062500000e-02 4.718017578125000000e-02 -2.469482421875000000e-01 -2.340115560205440204e-01 -1.072362785060029799e-01 9.663016983432382023e-01
-5.395507812500000000e-02 4.699707031250000000e-02 -2.458496093750000000e-01 -2.109753878489714074e-01 -1.415524297968366596e-01 9.671878283666455189e-01
-5.279541015625000000e-02 4.699707031250000000e-02 -2.458496093750000000e-01 -2.505412276427372298e-01 -1.192340471145256764e-01 9.607353096768959100e-01
-5.163574218750000000e-02 4.699707031250000000e-02 -2.458496093750000000e-01 -2.395364421667594834e-01 -6.479947586233229806e-02 9.687225200242108869e-01
-5.026245117187500000e-02 4.678344726562500000e-02 -2.448730468750000000e-01 -2.682432086766139423e-01 -4.440419603323114695e-02 9.623273083382373194e-01
-4.913330078125000000e-02 4.678344726562500000e-02 -2.448730468750000000e-01 -3.157145049055694042e-01 -1.496805735637832258e-02 9.487361638786662166e-01
-4.797363281250000000e-02 4.678344726562500000e-02 -2.448730468750000000e-01 -3.156658729457467727e-01 2.558993554762154995e-02 9.485252826657117886e-01
-4.663085937500000000e-02 4.660034179687500000e-02 -2.438964843750000000e-01 -3.318025454701289401e-01 1.034002445422421285e-01 9.376648976303569860e-01
-4.547119140625000000e-02 4.660034179687500000e-02 -2.438964843750000000e-01 -3.423406366855566985e-01 2.080281097136598423e-01 9.162571658888618575e-01
-4.415893554687500000e-02 4.641723632812500000e-02 -2.429199218750000000e-01 -2.821531011876115547e-01 2.633881000309851173e-01 9.225054667872061298e-01
-4.302978515625000000e-02 4.641723632812500000e-02 -2.429199218750000000e-01 -2.862724122721521103e-01 3.115947687675869604e-01 9.060666675518733726e-01
-4.168701171875000000e-02 4.620361328125000000e-02 -2.419433593750000000e-01 -2.994073818253704666e-01 3.615580117602116283e-01 8.829671703072994315e-01
-4.055786132812500000e-02 4.620361328125000000e-02 -2.419433593750000000e-01 -2.538522146921174394e-01 4.027451190926233937e-01 8.794062895743784969e-01
-3.942871093750000000e-02 4.620361328125000000e-02 -2.419433593750000000e-01 -1.838807142898825631e-01 4.709896514721415572e-01 8.627610509975478514e-01
-3.814697265625000000e-02 4.602050781250000000e-02 -2.408447265625000000e-01 -1.559483406953232065e-01 4.676082383981632895e-01 8.700704858898167249e-01
-3.698730468750000000e-02 4.602050781250000000e-02 -2.408447265625000000e-01 -9.212122080160062287e-02 5.045972795869170247e-01 8.584260399775307526e-01
-3.585815429687500000e-02 4.602050781250000000e-02 -2.408447265625000000e-01 -6.045761574105459890e-02 5.264398724202635771e-01 8.480601024839239388e-01
-3.472900390625000000e-02 4.602050781250000000e-02 -2.408447265625000000e-01 -4.375715766736416878e-02 5.493446144951993348e-01 8.344494027069551123e-01
-3.359985351562500000e-02 4.602050781250000000e-02 -2.408447265625000000e-01 -3.701354510712243084e-02 5.698840853181913468e-01 8.208910565840337181e-01
-3.247070312500000000e-02 4.602050781250000000e-02 -2.408447265625000000e-01 -5.924361802992773353e-03 5.768193697102358408e-01 8.168502412708914528e-01
-3.134155273437500000e-02 4.602050781250000000e-02 -2.408447265625000000e-01 2.518372471211994743e-02 5.714569096735598874e-01 8.202455610339923764e-01
-3.022766113281250000e-02 4.602050781250000000e-02 -2.408447265625000000e-01 7.219732337685924595e-02 5.642732105737647830e-01 8.224252490810292082e-01
-2.908325195312500000e-02 4.602050781250000000e-02 -2.408447265625000000e-01 1.069340987521247843e-01 5.492606313672137031e-01 8.287809465438745749e-01
-2.795410156250000000e-02 4.602050781250000000e-02 -2.408447265625000000e-01 1.311348934938166289e-01 5.333569868104728329e-01 8.356637866563432215e-01
-2.693176269531250000e-02 4.620361328125000000e-02 -2.419433593750000000e-01 1.583108645557346206e-01 5.431644953217596994e-01 8.245665535209840691e-01
-2.580261230468750000e-02 4.620361328125000000e-02 -2.419433593750000000e-01 1.936786251713143447e-01 5.379625909441119180e-01 8.204174796385360624e-01
-2.465820312500000000e-02 4.620361328125000000e-02 -2.419433593750000000e-01 2.232889082350334453e-01 5.154088459916585929e-01 8.273426043258944595e-01
-2.352905273437500000e-02 4.620361328125000000e-02 -2.419433593750000000e-01 2.784265655422368813e-01 4.814012611622714988e-01 8.311025648809712285e-01
-2.249145507812500000e-02 4.641723632812500000e-02 -2.429199218750000000e-01 3.503665969923504542e-01 4.560693240416965333e-01 8.180733581899302109e-01
-2.134704589843750000e-02 4.641723632812500000e-02 -2.429199218750000000e-01 4.232108801849612245e-01 4.234456188261522813e-01 8.009908606157795097e-01
-2.029418945312500000e-02 4.660034179687500000e-02 -2.438964843750000000e-01 4.736682585758591468e-01 4.097640937875148825e-01 7.795715286362180363e-01
-1.922607421875000000e-02 4.678344726562500000e-02 -2.448730468750000000e-01 4.896005244768044662e-01 4.122269767657312234e-01 7.683490392124033841e-01
-1.814270019531250000e-02 4.699707031250000000e-02 -2.458496093750000000e-01 4.940197781733791094e-01 4.101949818982216223e-01 7.666058541382546609e-01
-1.705932617187500000e-02 4.718017578125000000e-02 -2.469482421875000000e-01 4.777712715412746891e-01 4.431703275865762071e-01 7.585081890372973312e-01
-1.596069335937500000e-02 4.736328125000000000e-02 -2.479248046875000000e-01 4.566803720322186178e-01 4.630639457436990791e-01 7.596149155676122922e-01
-1.480102539062500000e-02 4.736328125000000000e-02 -2.479248046875000000e-01 -4.311910054412306792e-01 -4.789412026867880812e-01 -7.646500122248830467e-01
-1.369476318359375000e-02 4.754638671875000000e-02 -2.489013671875000000e-01 -3.925819296265573577e-01 -4.796231686847600151e-01 -7.847554043085525066e-01
-1.252746582031250000e-02 4.754638671875000000e-02 -2.489013671875000000e-01 -3.589733091240877028e-01 -4.825341807691359008e-01 -7.989361224315505439e-01
-6.628417968750000000e-02 4.638671875000000000e-02 -2.489013671875000000e-01 2.389049934836307010e-01 -7.757192958126227222e-03 -9.710119618449591927e-01
-6.512451171875000000e-02 4.638671875000000000e-02 -2.489013671875000000e-01 2.518694589776203085e-01 5.363050837594710019e-03 -9.677463579471812238e-01
-6.396484375000000000e-02 4.638671875000000000e-02 -2.489013671875000000e-01 2.556369942989015764e-01 1.825233919246341263e-03 -9.667711185523504280e-01
-6.274414062500000000e-02 4.638671875000000000e-02 -2.489013671875000000e-01 2.133017154156141293e-01 1.704873784811388598e-02 -9.768376112428017732e-01
-6.137084960937500000e-02 4.620361328125000000e-02 -2.479248046875000000e-01 2.598148358024975901e-01 5.221864322418078019e-03 -9.656443357830666319e-01
-6.021118164062500000e-02 4.620361328125000000e-02 -2.479248046875000000e-01 2.645835500054086742e-01 1.391394032899376243e-02 -9.642623851063862883e-01
-5.905151367187500000e-02 4.620361328125000000e-02 -2.479248046875000000e-01 -2.422188867605139240e-01 -2.460393653308587305e-03 9.702185101097422493e-01
-5.764770507812500000e-02 4.602050781250000000e-02 -2.469482421875000000e-01 -2.146293173992787351e-01 -4.847350611131216735e-02 9.754919657885430251e-01
-5.648803710937500000e-02 4.602050781250000000e-02 -2.469482421875000000e-01 -2.628919068717335827e-01 -8.883636239502325227e-02 9.607267801085612735e-01
-5.532836914062500000e-02 4.602050781250000000e-02 -2.469482421875000000e-01 -2.254860832503563783e-01 -1.220019160471451924e-01 9.665772388905289336e-01
-5.416870117187500000e-02 4.602050781250000000e-02 -2.469482421875000000e-01 -1.993674154961904421e-01 -1.411647861138632110e-01 9.697036334879830521e-01
-5.279541015625000000e-02 4.583740234375000000e-02 -2.458496093750000000e-01 -2.690025431017808444e-01 -1.023949372406952052e-01 9.576810056758193745e-01
-5.163574218750000000e-02 4.583740234375000000e-02 -2.458496093750000000e-01 -3.088827750234622305e-01 -7.969760357209114410e-02 9.477550966777604780e-01
-5.047607421875000000e-02 4.583740234375000000e-02 -2.458496093750000000e-01 -2.614831191989837045e-01 -7.690579014118482937e-02 9.621393234956827634e-01
-4.913330078125000000e-02 4.565429687500000000e-02 -2.448730468750000000e-01 -3.459087172144037492e-01 -3.631368542476831607e-02 9.375651847236845526e-01
-4.797363281250000000e-02 4.565429687500000000e-02 -2.448730468750000000e-01 -3.748869049062520387e-01 4.186341348458214734e-02 9.261248636880611285e-01
-4.663085937500000000e-02 4.544067382812500000e-02 -2.438964843750000000e-01 -3.758175969417666407e-01 1.071693686204146789e-01 9.204758879288569284e-01
-4.528808593750000000e-02 4.525756835937500000e-02 -2.429199218750000000e-01 -4.269762124774202361e-01 1.424447463369673816e-01 8.929730165125002728e-01
-4.415893554687500000e-02 4.525756835937500000e-02 -2.429199218750000000e-01 -3.628930478163826523e-01 2.130957092359697935e-01 9.071377263413509251e-01
-4.284667968750000000e-02 4.507446289062500000e-02 -2.419433593750000000e-01 -3.558353626385760138e-01 2.905373492842844851e-01 8.882394065603793631e-01
-4.168701171875000000e-02 4.507446289062500000e-02 -2.419433593750000000e-01 -3.291036883492879928e-01 3.388559142076731368e-01 8.814008348767187195e-01
-4.040527343750000000e-02 4.489135742187500000e-02 -2.408447265625000000e-01 -2.832150358653544586e-01 3.648155337841637036e-01 8.869604668583384033e-01
-3.927612304687500000e-02 4.489135742187500000e-02 -2.408447265625000000e-01 -2.321861204570812853e-01 3.883195653679891723e-01 8.917945506782970488e-01
-3.814697265625000000e-02 4.489135742187500000e-02 -2.408447265625000000e-01 -1.718136197476064220e-01 4.308979163579798599e-01 8.858933715451180468e-01
-3.698730468750000000e-02 4.489135742187500000e-02 -2.408447265625000000e-01 -1.174825507579069922e-01 4.572135251633805964e-01 8.815631813291038288e-01
-3.573608398437500000e-02 4.470825195312500000e-02 -2.398681640625000000e-01 -8.988669406482935331e-02 4.711040086685830408e-01 8.774858376329996990e-01
-3.460693359375000000e-02 4.470825195312500000e-02 -2.398681640625000000e-01 -6.515201495599344528e-02 5.022341102724730000e-01 8.622738042095395850e-01
-3.347778320312500000e-02 4.470825195312500000e-02 -2.398681640625000000e-01 -3.856430501622376550e-02 5.041767622556859729e-01 8.627390027001149431e-01
-3.234863281250000000e-02 4.470825195312500000e-02 -2.398681640625000000e-01 -4.516448165535239326e-03 5.041468236901192057e-01 8.636061497344330595e-01
-3.121948242187500000e-02 4.470825195312500000e-02 -2.398681640625000000e-01 2.890585924839094226e-02 5.049955857428647388e-01 8.626377627262401537e-01
-3.009033203125000000e-02 4.470825195312500000e-02 -2.398681640625000000e-01 7.741513451229628529e-02 5.146671838127964138e-01 8.538879240595035336e-01
-2.896118164062500000e-02 4.470825195312500000e-02 -2.398681640625000000e-01 1.159064379832535768e-01 5.097833198963239720e-01 8.524591863482475773e-01
-2.795410156250000000e-02 4.489135742187500000e-02 -2.408447265625000000e-01 1.396065251933067131e-01 5.186567074082638618e-01 8.435076988290440836e-01
-2.682495117187500000e-02 4.489135742187500000e-02 -2.408447265625000000e-01 1.662874276782473348e-01 5.113540761804284962e-01 8.431284007610063691e-01
-2.569580078125000000e-02 4.489135742187500000e-02 -2.408447265625000000e-01 2.318228637656985502e-01 4.858292791393329368e-01 8.427503019082381863e-01
-2.456665039062500000e-02 4.489135742187500000e-02 -2.408447265625000000e-01 2.558116756658420643e-01 4.780624123129570413e-01 8.402480089393549179e-01
-2.352905273437500000e-02 4.507446289062500000e-02 -2.419433593750000000e-01 3.085523943069473640e-01 4.582931492686612152e-01 8.335243303592658748e-01
-2.239990234375000000e-02 4.507446289062500000e-02 -2.419433593750000000e-01 3.952489060817949706e-01 3.947661811094148598e-01 8.294202580679067571e-01
-2.134704589843750000e-02 4.525756835937500000e-02 -2.429199218750000000e-01 4.508624671511484716e-01 3.742137361500359471e-01 8.103623358665005272e-01
-2.029418945312500000e-02 4.544067382812500000e-02 -2.438964843750000000e-01 4.627827111705677954e-01 3.931440316983088046e-01 7.945249729125057891e-01
-1.913452148437500000e-02 4.544067382812500000e-02 -2.438964843750000000e-01 4.878609604414397838e-01 3.766004400777741568e-01 7.875047884364785311e-01
-1.806640625000000000e-02 4.565429687500000000e-02 -2.448730468750000000e-01 4.905319307148801600e-01 3.938597081699131697e-01 7.773370924055038600e-01
-1.698303222656250000e-02 4.583740234375000000e-02 -2.458496093750000000e-01 4.661356183780968609e-01 4.285235052226435415e-01 7.740059371548568823e-01
-1.589965820312500000e-02 4.602050781250000000e-02 -2.469482421875000000e-01 4.290160554530442205e-01 4.490759868406846711e-01 7.837576042416275479e-01
-1.473999023437500000e-02 4.602050781250000000e-02 -2.469482421875000000e-01 -3.999745537034886667e-01 -4.757092535943375777e-01 -7.834035118854225654e-01
-1.364135742187500000e-02 4.620361328125000000e-02 -2.479248046875000000e-01 -3.869736339911405976e-01 -5.207536450058019017e-01 -7.609645509541569375e-01
-6.250000000000000000e-02 4.504394531250000000e-02 -2.479248046875000000e-01 2.181793666942733190e-01 -3.757657284363343647e-02 -9.751849902055573782e-01
-6.137084960937500000e-02 4.504394531250000000e-02 -2.479248046875000000e-01 2.477386343634512544e-01 -1.261011708058930314e-02 -9.687448343041347165e-01
-6.021118164062500000e-02 4.504394531250000000e-02 -2.479248046875000000e-01 2.677908905441881426e-01 1.196772223969022608e-03 -9.634763135011648050e-01
-5.905151367187500000e-02 4.504394531250000000e-02 -2.479248046875000000e-01 2.286780769295470306e-01 8.259044680134726424e-03 -9.734670643184469840e-01
-5.764770507812500000e-02 4.486083984375000000e-02 -2.469482421875000000e-01 2.220073398058702852e-01 4.978481962177521564e-02 -9.737731834506163642e-01
-5.648803710937500000e-02 4.486083984375000000e-02 -2.469482421875000000e-01 2.525322732406508064e-01 9.760600340021542698e-02 -9.626528549129985679e-01
-5.532836914062500000e-02 4.486083984375000000e-02 -2.469482421875000000e-01 2.446416703450884356e-01 9.608337406523881352e-02 -9.648411466967007355e-01
-5.416870117187500000e-02 4.486083984375000000e-02 -2.469482421875000000e-01 -2.073130664984873250e-01 -8.288032027052433248e-02 9.747574800794549521e-01
-5.279541015625000000e-02 4.467773437500000000e-02 -2.458496093750000000e-01 -2.736264415151218321e-01 -8.077728637662297262e-02 9.584381046835526163e-01
-5.163574218750000000e-02 4.467773437500000000e-02 -2.458496093750000000e-01 -3.090967877218250837e-01 -7.404742728890656434e-02 9.481435304488149418e-01
-5.047607421875000000e-02 4.467773437500000000e-02 -2.458496093750000000e-01 -3.129126608762310413e-01 -2.752324088944672550e-02 9.493830301170852470e-01
-4.913330078125000000e-02 4.449462890625000000e-02 -2.448730468750000000e-01 -3.594497194229073211e-01 1.280302718289554921e-02 9.330766215599591851e-01
-4.797363281250000000e-02 4.449462890625000000e-02 -2.448730468750000000e-01 -4.229657927118066763e-01 3.921277847540970141e-02 9.052968000605720045e-01
-4.663085937500000000e-02 4.431152343750000000e-02 -2.438964843750000000e-01 -4.300705267709427071e-01 8.255912244324893623e-02 8.990124211068301063e-01
-4.528808593750000000e-02 4.412841796875000000e-02 -2.429199218750000000e-01 -4.448515440980975733e-01 1.282194483083686498e-01 8.863785177840424190e-01
-4.415893554687500000e-02 4.412841796875000000e-02 -2.429199218750000000e-01 -4.365688181527884182e-01 1.930533046521978324e-01 8.787138832290879442e-01
-4.284667968750000000e-02 4.394531250000000000e-02 -2.419433593750000000e-01 -3.830787337153773175e-01 2.472936502127141556e-01 8.899980529975864973e-01
-4.153442382812500000e-02 4.376220703125000000e-02 -2.408447265625000000e-01 -3.600112821157373522e-01 2.862762553735441196e-01 8.879401907553707840e-01
-4.040527343750000000e-02 4.376220703125000000e-02 -2.408447265625000000e-01 -3.145263027908020148e-01 3.110392507609446300e-01 8.968432356542691553e-01
-3.909301757812500000e-02 4.357910156250000000e-02 -2.398681640625000000e-01 -2.512676369506344765e-01 3.605559753688328817e-01 8.982560677485422751e-01
-3.796386718750000000e-02 4.357910156250000000e-02 -2.398681640625000000e-01 -1.824053269303849145e-01 3.861521534701060077e-01 9.042205544433389308e-01
-3.683471679687500000e-02 4.357910156250000000e-02 -2.398681640625000000e-01 -1.293553305531239539e-01 4.090812704737444849e-01 9.032827423376798004e-01
-3.573608398437500000e-02 4.357910156250000000e-02 -2.398681640625000000e-01 -1.125732994703667889e-01 4.402588897942028012e-01 8.907858116312423746e-01
-3.460693359375000000e-02 4.357910156250000000e-02 -2.398681640625000000e-01 -1.002151196791324361e-01 4.639301423677001379e-01 8.801850673525327684e-01
-3.347778320312500000e-02 4.357910156250000000e-02 -2.398681640625000000e-01 -4.035942880586005505e-02 4.870693067853311131e-01 8.724302876987488631e-01
-3.219604492187500000e-02 4.339599609375000000e-02 -2.388916015625000000e-01 -7.702766876484536639e-03 4.804273933101577132e-01 8.770006768182414536e-01
-3.109741210937500000e-02 4.339599609375000000e-02 -2.388916015625000000e-01 2.565689169447041285e-02 4.917711139251912389e-01 8.703464226486801181e-01
-3.009033203125000000e-02 4.357910156250000000e-02 -2.398681640625000000e-01 5.602668325785687548e-02 4.955819695315504259e-01 8.667522842417855200e-01
-2.896118164062500000e-02 4.357910156250000000e-02 -2.398681640625000000e-01 1.117773677644898767e-01 4.928826546090238625e-01 8.628861505675030630e-01
-2.784729003906250000e-02 4.357910156250000000e-02 -2.398681640625000000e-01 1.490519495739618672e-01 5.013987857728317010e-01 8.522809243164669590e-01
-2.671813964843750000e-02 4.357910156250000000e-02 -2.398681640625000000e-01 1.962757288368246200e-01 4.903515597214244126e-01 8.491355522814597601e-01
-2.558898925781250000e-02 4.357910156250000000e-02 -2.398681640625000000e-01 2.525138672850643085e-01 4.823905568490555185e-01 8.387705869256498747e-01
-2.456665039062500000e-02 4.376220703125000000e-02 -2.408447265625000000e-01 2.831697427870506489e-01 4.395196356555231554e-01 8.524302825704584974e-01
-2.343750000000000000e-02 4.376220703125000000e-02 -2.408447265625000000e-01 3.777043956436076377e-01 3.987157188146296938e-01 8.356824546929474407e-01
-2.239990234375000000e-02 4.394531250000000000e-02 -2.419433593750000000e-01 4.304267475533068987e-01 3.605260398551979328e-01 8.274985133382475322e-01
-2.125549316406250000e-02 4.394531250000000000e-02 -2.419433593750000000e-01 4.501280236429998083e-01 3.374712349598839034e-01 8.267393349211694664e-01
-2.020263671875000000e-02 4.412841796875000000e-02 -2.429199218750000000e-01 4.824887267311543937e-01 3.314724931987292900e-01 8.107592829132255208e-01
-1.913452148437500000e-02 4.431152343750000000e-02 -2.438964843750000000e-01 4.747638612608311992e-01 3.447849182011107350e-01 8.097670258918668873e-01
-1.806640625000000000e-02 4.449462890625000000e-02 -2.448730468750000000e-01 4.609088213970815584e-01 4.021226464949412827e-01 7.911134150893017747e-01
-1.692199707031250000e-02 4.449462890625000000e-02 -2.448730468750000000e-01 4.358632199165608512e-01 4.081856934265271630e-01 8.021269807242945582e-01
-1.583862304687500000e-02 4.467773437500000000e-02 -2.458496093750000000e-01 4.021274181035836559e-01 4.562136069914450864e-01 7.938278682467633240e-01
-1.473999023437500000e-02 4.486083984375000000e-02 -2.469482421875000000e-01 3.588977047987205182e-01 4.898501591053102122e-01 7.945056696554861908e-01
-1.358032226562500000e-02 4.486083984375000000e-02 -2.469482421875000000e-01 -2.929799387380807030e-01 -5.118243223908733874e-01 -8.075881490624745584e-01
-5.764770507812500000e-02 4.370117187500000000e-02 -2.469482421875000000e-01 1.937899319871294879e-01 2.172840499256228214e-02 -9.808023953258387939e-01
-5.648803710937500000e-02 4.370117187500000000e-02 -2.469482421875000000e-01 2.500909064642139468e-01 7.881369087469454471e-02 -9.650092956208328188e-01
-5.532836914062500000e-02 4.370117187500000000e-02 -2.469482421875000000e-01 2.490139715808862841e-01 8.668118386503886885e-02 -9.646130904778708048e-01
-5.416870117187500000e-02 4.370117187500000000e-02 -2.469482421875000000e-01 2.070340464085544396e-01 5.656405315977826309e-02 -9.766971954079926022e-01
-5.300903320312500000e-02 4.370117187500000000e-02 -2.469482421875000000e-01 2.865120907395617422e-01 3.710220594978182185e-02 -9.573579519561663531e-01
-5.163574218750000000e-02 4.351806640625000000e-02 -2.458496093750000000e-01 -3.140054483669863505e-01 -2.960716985938147486e-02 9.489594268928285281e-01
-5.047607421875000000e-02 4.351806640625000000e-02 -2.458496093750000000e-01 -3.387727845096226154e-01 2.844515827326099533e-02 9.404381284520560991e-01
-4.913330078125000000e-02 4.333496093750000000e-02 -2.448730468750000000e-01 -3.424322760954212619e-01 6.326947666455362551e-02 9.374097874519461415e-01
-4.797363281250000000e-02 4.333496093750000000e-02 -2.448730468750000000e-01 -4.334995933499660170e-01 7.230370231801720726e-02 8.982484495931633006e-01
-4.663085937500000000e-02 4.315185546875000000e-02 -2.438964843750000000e-01 -4.516985063145036450e-01 9.719570047393912005e-02 8.868604485501800916e-01
-4.528808593750000000e-02 4.299926757812500000e-02 -2.429199218750000000e-01 -4.757904867724255249e-01 1.268295892540610148e-01 8.703663987002856484e-01
-4.397583007812500000e-02 4.281616210937500000e-02 -2.419433593750000000e-01 -4.833345094619417859e-01 1.401195135612489651e-01 8.641494511266804013e-01
-4.284667968750000000e-02 4.281616210937500000e-02 -2.419433593750000000e-01 -4.463563705906921641e-01 1.886244735463006861e-01 8.747495632536695931e-01
-4.153442382812500000e-02 4.263305664062500000e-02 -2.408447265625000000e-01 -4.109724560436323060e-01 2.288116907217429830e-01 8.824663452860521673e-01
-4.022216796875000000e-02 4.244995117187500000e-02 -2.398681640625000000e-01 -3.518849062958362417e-01 2.617880772583058291e-01 8.986901664792876776e-01
-3.909301757812500000e-02 4.244995117187500000e-02 -2.398681640625000000e-01 -2.763492204714526612e-01 2.910503460735998638e-01 9.159262002995974816e-01
-3.796386718750000000e-02 4.244995117187500000e-02 -2.398681640625000000e-01 -2.386617276201467019e-01 3.527099682846154827e-01 9.047851999463919492e-01
