-1.416015625000000000e-02 4.837036132812500000e-03 -2.198486328125000000e-01 -3.582987190536128519e-02 5.867420018604042609e-01 8.089808672225138331e-01
-1.312255859375000000e-02 4.837036132812500000e-03 -2.198486328125000000e-01 -4.711414770790638834e-02 5.779722982151364041e-01 8.146952065537583776e-01
-1.209259033203125000e-02 4.837036132812500000e-03 -2.198486328125000000e-01 -4.210266303379644331e-02 5.685074716342113366e-01 8.216000367949960470e-01
-1.106262207031250000e-02 4.837036132812500000e-03 -2.198486328125000000e-01 -5.134577538812863662e-02 5.692067604552276672e-01 8.205895899911581637e-01
-9.979248046875000000e-03 4.814147949218750000e-03 -2.187500000000000000e-01 -5.158891760522014980e-02 5.696637120541403476e-01 8.202571784196827087e-01
-8.949279785156250000e-03 4.814147949218750000e-03 -2.187500000000000000e-01 -4.224737714567598085e-02 5.691748770963130921e-01 8.211303906242345407e-01
-7.926940917968750000e-03 4.814147949218750000e-03 -2.187500000000000000e-01 -2.407708647805713656e-02 5.682253183368668470e-01 8.225206875864548017e-01
-6.900787353515625000e-03 4.814147949218750000e-03 -2.187500000000000000e-01 -2.035153024727191784e-02 5.776482729662463234e-01 8.160320385595821735e-01
-5.870819091796875000e-03 4.814147949218750000e-03 -2.187500000000000000e-01 -3.561059091579981545e-02 5.880082711633460857e-01 8.080706397698907972e-01
-4.844665527343750000e-03 4.814147949218750000e-03 -2.187500000000000000e-01 -4.293632856007564141e-02 5.975993914310586685e-01 8.006443898829301853e-01
-3.816604614257812500e-03 4.814147949218750000e-03 -2.187500000000000000e-01 -4.263806458827473778e-02 6.067932348234461593e-01 7.937152925455476238e-01
-2.788543701171875000e-03 4.814147949218750000e-03 -2.187500000000000000e-01 -3.488872834790780059e-02 6.155779542250289227e-01 7.873033461801073329e-01
-1.761436462402343750e-03 4.814147949218750000e-03 -2.187500000000000000e-01 -1.980527761354044375e-02 6.235869378914044026e-01 7.815030914013536556e-01
-7.343292236328125000e-04 4.814147949218750000e-03 -2.187500000000000000e-01 2.510020783379433764e-03 6.301054871876818897e-01 7.765054892347131865e-01
2.932548522949218750e-04 4.814147949218750000e-03 -2.187500000000000000e-01 -2.535407451318324231e-03 6.301019273520790387e-01 7.765082954201140142e-01
1.320838928222656250e-03 4.814147949218750000e-03 -2.187500000000000000e-01 -2.486987499057175758e-03 6.301100290451555619e-01 7.765018777761537594e-01
2.347946166992187500e-03 4.814147949218750000e-03 -2.187500000000000000e-01 -2.439599660193147741e-03 6.301180345358273760e-01 7.764955318005402063e-01
3.376007080078125000e-03 4.814147949218750000e-03 -2.187500000000000000e-01 -2.390205217550099744e-03 6.301260435604032484e-01 7.764891861101033133e-01
4.402160644531250000e-03 4.814147949218750000e-03 -2.187500000000000000e-01 -2.337740608723038599e-03 6.301339803792760375e-01 7.764829049890386026e-01
5.432128906250000000e-03 4.814147949218750000e-03 -2.187500000000000000e-01 1.999190547105519911e-02 6.234270572078026706e-01 7.816258875298690567e-01
6.458282470703125000e-03 4.814147949218750000e-03 -2.187500000000000000e-01 3.507387890056109375e-02 6.152953841721003903e-01 7.875159764953192365e-01
7.484436035156250000e-03 4.814147949218750000e-03 -2.187500000000000000e-01 6.868401598161899546e-02 6.073703133117817066e-01 7.914441284488658024e-01
8.514404296875000000e-03 4.814147949218750000e-03 -2.187500000000000000e-01 8.647539224548855818e-02 5.979727583091196674e-01 7.968378673583305094e-01
9.536743164062500000e-03 4.814147949218750000e-03 -2.187500000000000000e-01 1.018136900472980250e-01 5.965454651605619496e-01 7.960951453911280229e-01
1.061248779296875000e-02 4.837036132812500000e-03 -2.198486328125000000e-01 1.323666137608227322e-01 5.218318874215701619e-01 8.427161804733162009e-01
1.165008544921875000e-02 4.837036132812500000e-03 -2.198486328125000000e-01 1.960997866872758455e-01 5.005843590496438233e-01 8.431845427520966441e-01
1.268005371093750000e-02 4.837036132812500000e-03 -2.198486328125000000e-01 2.544434663282877929e-01 4.551658076477886339e-01 8.532775691363168047e-01
1.371002197265625000e-02 4.837036132812500000e-03 -2.198486328125000000e-01 2.830675309875680945e-01 4.568533392652679992e-01 8.433017249494844103e-01
1.481628417968750000e-02 4.859924316406250000e-03 -2.208251953125000000e-01 3.789392030747981699e-01 3.855428244454146003e-01 8.412858080888379053e-01
1.585388183593750000e-02 4.859924316406250000e-03 -2.208251953125000000e-01 4.386595018178692795e-01 3.507094194811327115e-01 8.273939476163127971e-01
1.696777343750000000e-02 4.882812500000000000e-03 -2.218017578125000000e-01 5.152171368865504641e-01 3.093773470823550920e-01 7.992727688159464439e-01
1.808166503906250000e-02 4.905700683593750000e-03 -2.227783203125000000e-01 5.708797498791277070e-01 2.836307359975053788e-01 7.704868050625254261e-01
1.921081542968750000e-02 4.924774169921875000e-03 -2.237548828125000000e-01 6.407790758658492569e-01 2.882437369764965229e-01 7.115600635409020658e-01
2.035522460937500000e-02 4.947662353515625000e-03 -2.248535156250000000e-01 -6.808988454899775888e-01 -2.720421697214868706e-01 -6.799778085376325665e-01
-2.597045898437500000e-02 3.875732421875000000e-03 -2.237548828125000000e-01 5.300382864906844071e-01 -4.676875635105440798e-01 -7.073385029754777342e-01
-2.470397949218750000e-02 3.841400146484375000e-03 -2.218017578125000000e-01 4.391413366019489839e-01 -5.255750916505217418e-01 -7.286464914648250746e-01
-2.355957031250000000e-02 3.824234008789062500e-03 -2.208251953125000000e-01 3.948413066363385959e-01 -5.770854895476752455e-01 -7.148934748109180282e-01
-2.252197265625000000e-02 3.824234008789062500e-03 -2.208251953125000000e-01 -3.223738349090176092e-01 5.764308557986931314e-01 7.508678838845349590e-01
-2.137756347656250000e-02 3.807067871093750000e-03 -2.198486328125000000e-01 -2.642472708284605565e-01 5.810988676395941743e-01 7.697385828238646477e-01
-2.035522460937500000e-02 3.807067871093750000e-03 -2.198486328125000000e-01 -2.269527001000487543e-01 5.852534344123608845e-01 7.784413204769090600e-01
-1.922607421875000000e-02 3.789901733398437500e-03 -2.187500000000000000e-01 -1.719534618397637604e-01 6.032408828767186204e-01 7.788019287260644630e-01
-1.820373535156250000e-02 3.789901733398437500e-03 -2.187500000000000000e-01 -1.165801481368974324e-01 6.111443347555906014e-01 7.828867550013384191e-01
-1.716613769531250000e-02 3.789901733398437500e-03 -2.187500000000000000e-01 -9.221928642527976727e-02 5.899039237831454896e-01 8.021901045989416890e-01
-1.614379882812500000e-02 3.789901733398437500e-03 -2.187500000000000000e-01 -5.683928442610656356e-02 5.775464179594491654e-01 8.143767131052664920e-01
-1.512145996093750000e-02 3.789901733398437500e-03 -2.187500000000000000e-01 -5.550288772379314423e-02 5.868044913451808675e-01 8.078241877979662755e-01
-1.409149169921875000e-02 3.789901733398437500e-03 -2.187500000000000000e-01 -3.106116710154741001e-02 5.945304126873920403e-01 8.034729567870031453e-01
-1.306152343750000000e-02 3.789901733398437500e-03 -2.187500000000000000e-01 -4.419868013275041196e-02 5.873873520394082837e-01 8.080981223457056606e-01
-1.203918457031250000e-02 3.789901733398437500e-03 -2.187500000000000000e-01 -5.474071882316395438e-02 5.965325606876216158e-01 8.007198996791526913e-01
-1.100921630859375000e-02 3.789901733398437500e-03 -2.187500000000000000e-01 -4.912372654651902398e-02 6.052001633479400233e-01 7.945562420457155106e-01
-9.979248046875000000e-03 3.789901733398437500e-03 -2.187500000000000000e-01 -4.949869923219646362e-02 5.950948888801896874e-01 8.021296354100095893e-01
-8.949279785156250000e-03 3.789901733398437500e-03 -2.187500000000000000e-01 -4.120293604724155345e-02 5.846430528637177604e-01 8.102436786543163461e-01
-7.926940917968750000e-03 3.789901733398437500e-03 -2.187500000000000000e-01 -2.386944193104000717e-02 5.732315066055425623e-01 8.190457188561823809e-01
-6.900787353515625000e-03 3.789901733398437500e-03 -2.187500000000000000e-01 -2.136019544160932745e-02 5.621432348918193878e-01 8.267640083579211874e-01
-5.870819091796875000e-03 3.789901733398437500e-03 -2.187500000000000000e-01 -3.762241795328852972e-02 5.634827950345506764e-01 8.252706788487027545e-01
-4.844665527343750000e-03 3.789901733398437500e-03 -2.187500000000000000e-01 -4.593717522832584804e-02 5.644805357722509909e-01 8.241671557798906367e-01
-3.799438476562500000e-03 3.770828247070312500e-03 -2.177734375000000000e-01 -4.472173787133393308e-02 5.631733193220520572e-01 8.251277346966042758e-01
-2.777099609375000000e-03 3.770828247070312500e-03 -2.177734375000000000e-01 -3.629967531779147022e-02 5.626864834444607055e-01 8.258730259069668733e-01
-1.753807067871093750e-03 3.770828247070312500e-03 -2.177734375000000000e-01 -1.991098789006898878e-02 5.616470483118655155e-01 8.271373197261809862e-01
-7.309913635253906250e-04 3.770828247070312500e-03 -2.177734375000000000e-01 4.578127325331358619e-03 5.591493123383372010e-01 8.290543331180156850e-01
2.918243408203125000e-04 3.770828247070312500e-03 -2.177734375000000000e-01 -4.600724547792771693e-03 5.591437415300296587e-01 8.290579651878599021e-01
1.314163208007812500e-03 3.770828247070312500e-03 -2.177734375000000000e-01 -4.548077280156488482e-03 5.591570509198651173e-01 8.290492792347468054e-01
2.336502075195312500e-03 3.770828247070312500e-03 -2.177734375000000000e-01 -4.497647941737455829e-03 5.591700509180964618e-01 8.290407862821017604e-01
3.360748291015625000e-03 3.770828247070312500e-03 -2.177734375000000000e-01 -4.453427153171649229e-03 5.591825389508749966e-01 8.290326019639061572e-01
4.383087158203125000e-03 3.770828247070312500e-03 -2.177734375000000000e-01 -4.403686346236860769e-03 5.591952405634493806e-01 8.290243002938755268e-01
5.405426025390625000e-03 3.770828247070312500e-03 -2.177734375000000000e-01 2.010100655348310422e-02 5.614915837781049301e-01 8.272382672978156881e-01
6.427764892578125000e-03 3.770828247070312500e-03 -2.177734375000000000e-01 3.648230985595238979e-02 5.623950839717263284e-01 8.260634422318959835e-01
7.450103759765625000e-03 3.770828247070312500e-03 -2.177734375000000000e-01 5.591204071034192730e-02 5.670640993639167737e-01 8.217737832981744095e-01
8.514404296875000000e-03 3.789901733398437500e-03 -2.187500000000000000e-01 8.841555907652430546e-02 5.862242448108500037e-01 8.053097687903295610e-01
9.536743164062500000e-03 3.789901733398437500e-03 -2.187500000000000000e-01 1.261104948575393625e-01 5.643821155117504373e-01 8.158241052930880199e-01
1.056671142578125000e-02 3.789901733398437500e-03 -2.187500000000000000e-01 1.678798026840249979e-01 5.540075156448595051e-01 8.154091270397845204e-01
1.159667968750000000e-02 3.789901733398437500e-03 -2.187500000000000000e-01 2.310230588468646928e-01 5.378942477756710749e-01 8.107392456831501448e-01
1.262664794921875000e-02 3.789901733398437500e-03 -2.187500000000000000e-01 2.808430657510715966e-01 5.245678210912225747e-01 8.037137385258176225e-01
1.371002197265625000e-02 3.807067871093750000e-03 -2.198486328125000000e-01 3.366987511877734818e-01 4.342717816281528864e-01 8.354890607483161924e-01
1.474761962890625000e-02 3.807067871093750000e-03 -2.198486328125000000e-01 3.990882059399790682e-01 4.058535004106955668e-01 8.221992094887921043e-01
1.585388183593750000e-02 3.824234008789062500e-03 -2.208251953125000000e-01 4.780504047874075124e-01 3.364271773729406445e-01 8.113473761635467962e-01
1.696777343750000000e-02 3.841400146484375000e-03 -2.218017578125000000e-01 5.465412038834667197e-01 3.007207295607937092e-01 7.815751756997115773e-01
1.800537109375000000e-02 3.841400146484375000e-03 -2.218017578125000000e-01 5.690113996573827881e-01 2.937138566743871526e-01 7.680873631673704738e-01
1.913452148437500000e-02 3.858566284179687500e-03 -2.227783203125000000e-01 6.147532262274559844e-01 2.923994375758882103e-01 7.325169211344122466e-01
-2.459716796875000000e-02 2.786636352539062500e-03 -2.208251953125000000e-01 3.689246062878615562e-01 -6.118706807975415884e-01 -6.996491298184396301e-01
-2.345275878906250000e-02 2.773284912109375000e-03 -2.198486328125000000e-01 2.980614951052810158e-01 -6.476995160344395375e-01 -7.011737887744788900e-01
-2.241516113281250000e-02 2.773284912109375000e-03 -2.198486328125000000e-01 -2.722490854359453927e-01 6.466088198578854307e-01 7.125850612813068308e-01
-2.128601074218750000e-02 2.761840820312500000e-03 -2.187500000000000000e-01 -1.979053797065602194e-01 6.549288788908788073e-01 7.293158604321854366e-01
-2.024841308593750000e-02 2.761840820312500000e-03 -2.187500000000000000e-01 -1.851576891789550039e-01 6.389516788853510931e-01 7.466306866098529893e-01
-1.922607421875000000e-02 2.761840820312500000e-03 -2.187500000000000000e-01 -1.534249394767308872e-01 6.153673628828526532e-01 7.731647926834002149e-01
-1.820373535156250000e-02 2.761840820312500000e-03 -2.187500000000000000e-01 -9.052155739364015075e-02 5.874211862958294006e-01 8.042028335798316885e-01
-1.708984375000000000e-02 2.748489379882812500e-03 -2.177734375000000000e-01 -5.722194526907314199e-02 5.763692152965381732e-01 8.151835232866744274e-01
-1.606750488281250000e-02 2.748489379882812500e-03 -2.177734375000000000e-01 -6.027949964885318673e-02 5.729120499563373770e-01 8.173971892152011032e-01
-1.505279541015625000e-02 2.748489379882812500e-03 -2.177734375000000000e-01 -5.941077671697923834e-02 5.826973938140822540e-01 8.105147172335377403e-01
-1.403045654296875000e-02 2.748489379882812500e-03 -2.177734375000000000e-01 -4.316793501135029326e-02 5.921746251037920405e-01 8.046525602830325585e-01
-1.300811767578125000e-02 2.748489379882812500e-03 -2.177734375000000000e-01 -4.281785198186793817e-02 6.015909337423116510e-01 7.976559283241819731e-01
-1.197814941406250000e-02 2.748489379882812500e-03 -2.177734375000000000e-01 -5.110297478952281758e-02 5.893562379402610407e-01 8.062553632494880995e-01
-1.095581054687500000e-02 2.748489379882812500e-03 -2.177734375000000000e-01 -4.302086468579992967e-02 5.760333162598552104e-01 8.162933441847725069e-01
-9.933471679687500000e-03 2.748489379882812500e-03 -2.177734375000000000e-01 -1.748554757218602831e-02 5.603648778693334220e-01 8.280612654125222294e-01
-8.911132812500000000e-03 2.748489379882812500e-03 -2.177734375000000000e-01 -6.169676037289233139e-03 5.319335989169865497e-01 8.467635924157448368e-01
-7.888793945312500000e-03 2.748489379882812500e-03 -2.177734375000000000e-01 9.159245003760583745e-03 5.196965945628091443e-01 8.543017955212198755e-01
-6.866455078125000000e-03 2.748489379882812500e-03 -2.177734375000000000e-01 -3.058682475508630802e-02 5.222413427637063732e-01 8.522490399289180951e-01
-5.844116210937500000e-03 2.748489379882812500e-03 -2.177734375000000000e-01 -5.641320977901595479e-02 5.367306048701311338e-01 8.418656707326723776e-01
-4.821777343750000000e-03 2.748489379882812500e-03 -2.177734375000000000e-01 -6.554289020763844065e-02 5.495542151970366218e-01 8.328831215136963673e-01
-3.799438476562500000e-03 2.748489379882812500e-03 -2.177734375000000000e-01 -5.865225986964564542e-02 5.617445278583393931e-01 8.252290577975275321e-01
-2.777099609375000000e-03 2.748489379882812500e-03 -2.177734375000000000e-01 -3.612571426779770389e-02 5.726581549302522944e-01 8.189979062003277521e-01
-1.753807067871093750e-03 2.748489379882812500e-03 -2.177734375000000000e-01 -2.037967244064610092e-02 5.617714328591399964e-01 8.270414295394160620e-01
-7.309913635253906250e-04 2.748489379882812500e-03 -2.177734375000000000e-01 3.828456652735273431e-03 5.489397654472618626e-01 8.358531431001280376e-01
2.918243408203125000e-04 2.748489379882812500e-03 -2.177734375000000000e-01 -3.851730065336070579e-03 5.489345038291841838e-01 8.358564916786321852e-01
1.314163208007812500e-03 2.748489379882812500e-03 -2.177734375000000000e-01 -3.798225497443029168e-03 5.489464732516609047e-01 8.358488756872465286e-01
2.336502075195312500e-03 2.748489379882812500e-03 -2.177734375000000000e-01 -3.746971105021888303e-03 5.489582142720801361e-01 8.358413959542486671e-01
3.360748291015625000e-03 2.748489379882812500e-03 -2.177734375000000000e-01 -3.697101883107685449e-03 5.489696721133044965e-01 8.358340927106747698e-01
4.383087158203125000e-03 2.748489379882812500e-03 -2.177734375000000000e-01 -3.650799011370387849e-03 5.489803084711029069e-01 8.358273102606490479e-01
5.405426025390625000e-03 2.748489379882812500e-03 -2.177734375000000000e-01 2.059112915669117708e-02 5.616057209718841037e-01 8.271487288098209323e-01
6.427764892578125000e-03 2.748489379882812500e-03 -2.177734375000000000e-01 3.632721728528531119e-02 5.723533704786865073e-01 8.192020218395429376e-01
7.450103759765625000e-03 2.748489379882812500e-03 -2.177734375000000000e-01 5.885952672424746984e-02 5.612493800788233012e-01 8.255511428584750844e-01
8.476257324218750000e-03 2.748489379882812500e-03 -2.177734375000000000e-01 1.000849165985950445e-01 5.525835227001162364e-01 8.274264075492044901e-01
9.498596191406250000e-03 2.748489379882812500e-03 -2.177734375000000000e-01 1.419627906827662100e-01 5.579588844280194415e-01 8.176358904484325452e-01
1.052093505859375000e-02 2.748489379882812500e-03 -2.177734375000000000e-01 1.842097344740790121e-01 5.623615102943347877e-01 8.061118442650897498e-01
1.154327392578125000e-02 2.748489379882812500e-03 -2.177734375000000000e-01 2.194732737336063944e-01 5.530631383171760174e-01 8.037117935873591135e-01
1.262664794921875000e-02 2.761840820312500000e-03 -2.187500000000000000e-01 3.113514781196609071e-01 5.017576602115669804e-01 8.070312927586613672e-01
1.364898681640625000e-02 2.761840820312500000e-03 -2.187500000000000000e-01 3.693624365089077655e-01 4.659036322708676736e-01 8.040554681942131410e-01
1.474761962890625000e-02 2.773284912109375000e-03 -2.198486328125000000e-01 4.364847852011538576e-01 3.953260801200734198e-01 8.082068563584449139e-01
1.577758789062500000e-02 2.773284912109375000e-03 -2.198486328125000000e-01 5.052741259773265714e-01 3.468754184449783229e-01 7.901743489233687967e-01
1.689147949218750000e-02 2.786636352539062500e-03 -2.208251953125000000e-01 5.541611268483178643e-01 3.066827692527537841e-01 7.738547179759678318e-01
1.800537109375000000e-02 2.799987792968750000e-03 -2.218017578125000000e-01 5.603635188584129567e-01 2.817633376242901222e-01 7.788466783028847873e-01
1.913452148437500000e-02 2.811431884765625000e-03 -2.227783203125000000e-01 6.092743411557967059e-01 2.949175467964759156e-01 7.360763668266481208e-01
2.026367187500000000e-02 2.824783325195312500e-03 -2.237548828125000000e-01 -6.443675463054733266e-01 -2.791243827200081684e-01 -7.119550858301655349e-01
-2.436828613281250000e-02 1.733779907226562500e-03 -2.187500000000000000e-01 2.672486236613175192e-01 -6.989408291937653228e-01 -6.633701006505068332e-01
-2.334594726562500000e-02 1.733779907226562500e-03 -2.187500000000000000e-01 2.660455823982565415e-01 -6.828371295168499389e-01 -6.804066450583512449e-01
-2.230834960937500000e-02 1.733779907226562500e-03 -2.187500000000000000e-01 -2.599587695086656436e-01 6.683182838721443142e-01 6.969735357943889209e-01
-2.117919921875000000e-02 1.726150512695312500e-03 -2.177734375000000000e-01 -1.667898889213723368e-01 6.777341294501837421e-01 7.161407562288280015e-01
-2.015686035156250000e-02 1.726150512695312500e-03 -2.177734375000000000e-01 -1.355408878318228594e-01 6.653445266189285112e-01 7.341289591236644929e-01
-1.913452148437500000e-02 1.726150512695312500e-03 -2.177734375000000000e-01 -8.350662396053545877e-02 6.401993219332523521e-01 7.636566453262338960e-01
-1.811218261718750000e-02 1.726150512695312500e-03 -2.177734375000000000e-01 -5.222987496247337436e-02 6.009940604918881935e-01 7.975450955368461603e-01
-1.708984375000000000e-02 1.726150512695312500e-03 -2.177734375000000000e-01 -4.455171130828990828e-02 5.822396249181249761e-01 8.117956418919135553e-01
-1.606750488281250000e-02 1.726150512695312500e-03 -2.177734375000000000e-01 -6.098000366544895773e-02 5.728168751337121556e-01 8.174119320850480319e-01
-1.505279541015625000e-02 1.726150512695312500e-03 -2.177734375000000000e-01 -6.185941390737836887e-02 5.632963934264005879e-01 8.239360327500221404e-01
-1.403045654296875000e-02 1.726150512695312500e-03 -2.177734375000000000e-01 -4.680876233918217916e-02 5.534739923467026923e-01 8.315500463376066520e-01
-1.294708251953125000e-02 1.718521118164062500e-03 -2.167968750000000000e-01 -4.693144207760635567e-02 5.539332545364183957e-01 8.312372641209054835e-01
-1.192474365234375000e-02 1.718521118164062500e-03 -2.167968750000000000e-01 -3.835289924430411446e-02 5.534353329487650131e-01 8.320086462071448752e-01
-1.091003417968750000e-02 1.718521118164062500e-03 -2.167968750000000000e-01 -2.169885627556985414e-02 5.525549465645415159e-01 8.331939694113181805e-01
-9.887695312500000000e-03 1.718521118164062500e-03 -2.167968750000000000e-01 3.246071550901446535e-03 5.503699590280820564e-01 8.349145891759910398e-01
-8.872985839843750000e-03 1.718521118164062500e-03 -2.167968750000000000e-01 3.293876569744180055e-03 5.503604958695995641e-01 8.349206399193349615e-01
-7.850646972656250000e-03 1.718521118164062500e-03 -2.167968750000000000e-01 -2.096460372636544875e-02 5.629769338654859734e-01 8.262066674422402501e-01
-6.835937500000000000e-03 1.718521118164062500e-03 -2.167968750000000000e-01 -3.673648498382826866e-02 5.739506465357318010e-01 8.180654533790364669e-01
-5.817413330078125000e-03 1.718521118164062500e-03 -2.167968750000000000e-01 -5.925119484366378475e-02 5.634737868248711479e-01 8.240064244111436897e-01
-4.798889160156250000e-03 1.718521118164062500e-03 -2.167968750000000000e-01 -6.607029491027521795e-02 5.518928305925128175e-01 8.312935821182869667e-01
-3.782272338867187500e-03 1.718521118164062500e-03 -2.167968750000000000e-01 -5.678788435563366516e-02 5.396219706936872251e-01 8.399900385927637769e-01
-2.763748168945312500e-03 1.718521118164062500e-03 -2.167968750000000000e-01 -3.067397590868806839e-02 5.253892654265316375e-01 8.503089009157335232e-01
-1.745223999023437500e-03 1.718521118164062500e-03 -2.167968750000000000e-01 9.646140678326597245e-03 5.223473797510875816e-01 8.526782317129872890e-01
-7.276535034179687500e-04 1.718521118164062500e-03 -2.167968750000000000e-01 -5.510825671982740731e-03 5.347409997589839259e-01 8.449980437712121262e-01
2.903938293457031250e-04 1.718521118164062500e-03 -2.167968750000000000e-01 -1.669385765321820814e-02 5.638186706195428277e-01 8.257298721600579983e-01
1.308441162109375000e-03 1.718521118164062500e-03 -2.167968750000000000e-01 -1.843763511056813534e-02 5.892581438141409889e-01 8.077344201903512433e-01
2.326965332031250000e-03 1.718521118164062500e-03 -2.167968750000000000e-01 -1.135185273870746407e-02 6.114520836182558705e-01 7.912000283609019746e-01
3.345489501953125000e-03 1.718521118164062500e-03 -2.167968750000000000e-01 -3.677873262204167139e-03 6.304171471426016637e-01 7.762478301656311475e-01
4.364013671875000000e-03 1.718521118164062500e-03 -2.167968750000000000e-01 1.178231859408997162e-02 6.112886115130748976e-01 7.913200429680550263e-01
5.378723144531250000e-03 1.718521118164062500e-03 -2.167968750000000000e-01 1.892704918705100797e-02 5.889830019253536886e-01 8.079237527465508162e-01
6.397247314453125000e-03 1.718521118164062500e-03 -2.167968750000000000e-01 5.638267492028650046e-02 5.745789846866785622e-01 8.165047362540274190e-01
7.415771484375000000e-03 1.718521118164062500e-03 -2.167968750000000000e-01 6.924847271840094132e-02 5.562082919336063247e-01 8.281527546355618163e-01
8.430480957031250000e-03 1.718521118164062500e-03 -2.167968750000000000e-01 9.064061700181627601e-02 5.520030211389155284e-01 8.289010454831383656e-01
9.452819824218750000e-03 1.718521118164062500e-03 -2.167968750000000000e-01 1.096057790323364117e-01 5.656213132544742894e-01 8.173488258968741871e-01
1.046752929687500000e-02 1.718521118164062500e-03 -2.167968750000000000e-01 1.643099083802438964e-01 5.459783470381535109e-01 8.215290004458524198e-01
1.154327392578125000e-02 1.726150512695312500e-03 -2.177734375000000000e-01 2.573231516516709672e-01 5.259941745494413068e-01 8.106262541788927800e-01
1.256561279296875000e-02 1.726150512695312500e-03 -2.177734375000000000e-01 3.291722063979432011e-01 5.018708062476844312e-01 7.998570824662424306e-01
1.364898681640625000e-02 1.733779907226562500e-03 -2.187500000000000000e-01 4.225291609393269643e-01 4.288793510172045353e-01 7.984557661054054734e-01
1.467895507812500000e-02 1.733779907226562500e-03 -2.187500000000000000e-01 4.788059731758875226e-01 3.904480746513456224e-01 7.863174556450776009e-01
1.577758789062500000e-02 1.742362976074218750e-03 -2.198486328125000000e-01 5.298401232736066335e-01 3.269917402893591785e-01 7.825253002631580301e-01
1.689147949218750000e-02 1.749992370605468750e-03 -2.208251953125000000e-01 5.721851231831385221e-01 2.827535303862044325e-01 7.698406496555207923e-01
1.800537109375000000e-02 1.757621765136718750e-03 -2.218017578125000000e-01 5.914583605748247042e-01 2.577089521228010383e-01 7.640439147731683533e-01
1.913452148437500000e-02 1.766204833984375000e-03 -2.227783203125000000e-01 -6.031718956323669500e-01 -2.516307329004169313e-01 -7.568788797286237768e-01
2.017211914062500000e-02 1.766204833984375000e-03 -2.227783203125000000e-01 -6.210944585010584884e-01 -2.586364126621090720e-01 -7.398303046405657613e-01
-2.426147460937500000e-02 7.033348083496093750e-04 -2.177734375000000000e-01 2.498598781922557466e-01 -7.164979021953513660e-01 -6.513069916862646025e-01
-2.322387695312500000e-02 7.033348083496093750e-04 -2.177734375000000000e-01 2.191619219116508754e-01 -7.269251893539496745e-01 -6.508055170838027426e-01
-2.210998535156250000e-02 6.999969482421875000e-04 -2.167968750000000000e-01 1.880411284137314121e-01 -7.276732257414513239e-01 -6.596455188689765992e-01
-2.108764648437500000e-02 6.999969482421875000e-04 -2.167968750000000000e-01 1.262871710977202522e-01 -7.212469140469643936e-01 -6.810686010923316935e-01
-2.006530761718750000e-02 6.999969482421875000e-04 -2.167968750000000000e-01 -8.403192110636913126e-02 6.995346607211924139e-01 7.096406799816786792e-01
-1.905822753906250000e-02 6.999969482421875000e-04 -2.167968750000000000e-01 -1.352348571318131784e-02 6.885658894649505646e-01 7.250476751217859173e-01
-1.803588867187500000e-02 6.999969482421875000e-04 -2.167968750000000000e-01 -1.983352108440812264e-02 6.758549021879006746e-01 7.367677942404766700e-01
-1.701354980468750000e-02 6.999969482421875000e-04 -2.167968750000000000e-01 -1.985643581466639898e-02 6.628227001269965113e-01 7.485130527606685957e-01
-1.599121093750000000e-02 6.999969482421875000e-04 -2.167968750000000000e-01 -3.486497465227107739e-02 6.412163421615403314e-01 7.665676983068561157e-01
-1.498413085937500000e-02 6.999969482421875000e-04 -2.167968750000000000e-01 -3.516893003067227130e-02 6.160221909915971628e-01 7.869433312293903082e-01
-1.396179199218750000e-02 6.999969482421875000e-04 -2.167968750000000000e-01 -4.303161390613349097e-02 6.070034905987040652e-01 7.935332649647539593e-01
-1.294708251953125000e-02 6.999969482421875000e-04 -2.167968750000000000e-01 -4.325484801755662828e-02 5.977876741765679736e-01 8.004866736714281172e-01
-1.192474365234375000e-02 6.999969482421875000e-04 -2.167968750000000000e-01 -3.565753728909580589e-02 5.882934497844656274e-01 8.078609762670611039e-01
-1.091003417968750000e-02 6.999969482421875000e-04 -2.167968750000000000e-01 -1.993241683545509541e-02 5.779943253151185178e-01 8.157973146944151877e-01
-9.887695312500000000e-03 6.999969482421875000e-04 -2.167968750000000000e-01 4.308984818196485468e-03 5.659162175355340052e-01 8.244514948619541261e-01
-8.872985839843750000e-03 6.999969482421875000e-04 -2.167968750000000000e-01 4.366916188134275720e-03 5.659044506170891609e-01 8.244592669227365223e-01
-7.850646972656250000e-03 6.999969482421875000e-04 -2.167968750000000000e-01 -2.031490163477750466e-02 5.680755518344672295e-01 8.227256360291289594e-01
-6.835937500000000000e-03 6.999969482421875000e-04 -2.167968750000000000e-01 -3.682386024558024357e-02 5.690802385080858672e-01 8.214570502808981045e-01
-5.817413330078125000e-03 6.999969482421875000e-04 -2.167968750000000000e-01 -4.527130087359791666e-02 5.697206524308496833e-01 8.205905723995243761e-01
-4.776000976562500000e-03 6.966590881347656250e-04 -2.158203125000000000e-01 -4.689790658515741173e-02 5.719022603571962682e-01 8.189800919169277771e-01
-3.765106201171875000e-03 6.966590881347656250e-04 -2.158203125000000000e-01 -3.832593332081860732e-02 5.711060836341733671e-01 8.199810754347470754e-01
-2.750396728515625000e-03 6.966590881347656250e-04 -2.158203125000000000e-01 -2.170851670211882897e-02 5.698008447708682311e-01 8.214960362661518634e-01
-1.737594604492187500e-03 6.966590881347656250e-04 -2.158203125000000000e-01 -2.400426812995088213e-02 5.812655999295784914e-01 8.133597589320809007e-01
-7.243156433105468750e-04 6.966590881347656250e-04 -2.158203125000000000e-01 -4.155389831329919792e-02 5.933441213674622849e-01 8.038756291701111278e-01
2.892017364501953125e-04 6.966590881347656250e-04 -2.158203125000000000e-01 -5.554803054087294190e-02 5.979667147571099406e-01 7.995937870854296081e-01
1.302719116210937500e-03 6.966590881347656250e-04 -2.158203125000000000e-01 -5.484358858845946733e-02 6.086681603686413533e-01 7.915271639964062134e-01
2.315521240234375000e-03 6.966590881347656250e-04 -2.158203125000000000e-01 -4.549343228382506099e-02 6.198073560117344227e-01 7.834342276495074309e-01
3.328323364257812500e-03 6.966590881347656250e-04 -2.158203125000000000e-01 -2.062870766288725684e-03 6.240846238279345037e-01 7.813540342672756767e-01
4.341125488281250000e-03 6.966590881347656250e-04 -2.158203125000000000e-01 4.090190783145460085e-02 6.241443666409526303e-01 7.802376839951473686e-01
5.355834960937500000e-03 6.966590881347656250e-04 -2.158203125000000000e-01 4.989587799539473706e-02 6.140862143444260068e-01 7.876601568641136142e-01
6.370544433593750000e-03 6.966590881347656250e-04 -2.158203125000000000e-01 7.391756302907570575e-02 6.041647866528134792e-01 7.934236601240240994e-01
7.381439208984375000e-03 6.966590881347656250e-04 -2.158203125000000000e-01 8.177397434106115082e-02 5.936384673833298153e-01 8.005662915482008035e-01
8.392333984375000000e-03 6.966590881347656250e-04 -2.158203125000000000e-01 8.259827822340005954e-02 5.841262162174057915e-01 8.074491240704062545e-01
9.452819824218750000e-03 6.999969482421875000e-04 -2.167968750000000000e-01 1.247561196000278178e-01 5.545327839783021906e-01 8.227571343450126307e-01
1.046752929687500000e-02 6.999969482421875000e-04 -2.167968750000000000e-01 1.910682145434021983e-01 5.467970638798086425e-01 8.151723181779523264e-01
1.148986816406250000e-02 6.999969482421875000e-04 -2.167968750000000000e-01 2.762019485446653988e-01 5.115762065091082889e-01 8.136352183588664300e-01
1.250457763671875000e-02 6.999969482421875000e-04 -2.167968750000000000e-01 3.597185291356377879e-01 4.607404876302699792e-01 8.113696955486533469e-01
1.358795166015625000e-02 7.033348083496093750e-04 -2.177734375000000000e-01 4.459085422240236518e-01 4.233765349854019533e-01 7.886177030699988988e-01
1.467895507812500000e-02 7.061958312988281250e-04 -2.187500000000000000e-01 5.263963563638399679e-01 3.530018664016729146e-01 7.734963208211198538e-01
1.570129394531250000e-02 7.061958312988281250e-04 -2.187500000000000000e-01 5.871931017047012924e-01 2.815196176849436016e-01 7.589143338802710748e-01
1.679992675781250000e-02 7.095336914062500000e-04 -2.198486328125000000e-01 5.866129890010661763e-01 2.658430511844990796e-01 7.649919432727058100e-01
1.791381835937500000e-02 7.128715515136718750e-04 -2.208251953125000000e-01 5.888658231121270958e-01 2.504170551186873928e-01 7.684584184431589859e-01
1.904296875000000000e-02 7.162094116210937500e-04 -2.218017578125000000e-01 -6.037313406449317243e-01 -2.512414779047378310e-01 -7.565620847645725400e-01
-2.539062500000000000e-02 -3.209114074707031250e-04 -2.187500000000000000e-01 2.603140413341644144e-01 -7.268612922681497723e-01 -6.355385603459087207e-01
-2.413940429687500000e-02 -3.180503845214843750e-04 -2.167968750000000000e-01 2.352782882656491437e-01 -7.155041321507684682e-01 -6.577978138804974062e-01
-2.311706542968750000e-02 -3.180503845214843750e-04 -2.167968750000000000e-01 1.785432140414369984e-01 -7.308340763963560027e-01 -6.587897035455537731e-01
-2.200317382812500000e-02 -3.166198730468750000e-04 -2.158203125000000000e-01 1.356364594763373455e-01 -7.079091707016597068e-01 -6.931575267550750263e-01
-2.099609375000000000e-02 -3.166198730468750000e-04 -2.158203125000000000e-01 -1.124695475012842255e-01 6.949890392177703324e-01 7.101695827420495544e-01
-1.997375488281250000e-02 -3.166198730468750000e-04 -2.158203125000000000e-01 -2.530173582092401854e-02 6.982945833450543427e-01 7.153631923962856520e-01
-1.896667480468750000e-02 -3.166198730468750000e-04 -2.158203125000000000e-01 -1.311107787726628767e-04 -7.081737661782386839e-01 -7.060381715650317913e-01
-1.794433593750000000e-02 -3.166198730468750000e-04 -2.158203125000000000e-01 -1.300842047223901734e-04 -7.081734562107542263e-01 -7.060384826598438135e-01
-1.693725585937500000e-02 -3.166198730468750000e-04 -2.158203125000000000e-01 -1.340869554069488165e-04 -7.081731581196122338e-01 -7.060387809034167628e-01
-1.591491699218750000e-02 -3.166198730468750000e-04 -2.158203125000000000e-01 -1.343747971019694835e-04 -7.081728684882410141e-01 -7.060390713555095843e-01
-1.491546630859375000e-02 -3.166198730468750000e-04 -2.158203125000000000e-01 -1.355624691417703885e-02 6.979533051670969712e-01 7.160149523410297423e-01
-1.390075683593750000e-02 -3.166198730468750000e-04 -2.158203125000000000e-01 -2.059404019187140861e-02 6.864802686970068457e-01 7.268567439311963696e-01
-1.288604736328125000e-02 -3.166198730468750000e-04 -2.158203125000000000e-01 -2.058805330031108008e-02 6.738484094510768241e-01 7.385827327669917119e-01
-1.187133789062500000e-02 -3.166198730468750000e-04 -2.158203125000000000e-01 -1.316463721172580863e-02 6.598219636441439162e-01 7.513066408729992540e-01
-1.085662841796875000e-02 -3.166198730468750000e-04 -2.158203125000000000e-01 2.271518398472901958e-03 6.437273479145116939e-01 7.652515545564836374e-01
-9.841918945312500000e-03 -3.166198730468750000e-04 -2.158203125000000000e-01 2.303985886254247221e-03 6.437207139737400885e-01 7.652570378965320996e-01
-8.827209472656250000e-03 -3.166198730468750000e-04 -2.158203125000000000e-01 2.376731913849843003e-03 6.437128291675403569e-01 7.652634479122406574e-01
-7.812500000000000000e-03 -3.166198730468750000e-04 -2.158203125000000000e-01 -2.030749405915254283e-02 6.367966822074537792e-01 7.707642903084032104e-01
-6.805419921875000000e-03 -3.166198730468750000e-04 -2.158203125000000000e-01 -3.560852857276145672e-02 6.286309746626731476e-01 7.768881067358029968e-01
-5.790710449218750000e-03 -3.166198730468750000e-04 -2.158203125000000000e-01 -4.347875456439381087e-02 6.198547403649489196e-01 7.835111350508242589e-01
-4.776000976562500000e-03 -3.166198730468750000e-04 -2.158203125000000000e-01 -4.371477627418559470e-02 6.107621670934664238e-01 7.906064720090461018e-01
-3.765106201171875000e-03 -3.166198730468750000e-04 -2.158203125000000000e-01 -3.615457313703739767e-02 6.012596089903354812e-01 7.982353847318894857e-01
-2.750396728515625000e-03 -3.166198730468750000e-04 -2.158203125000000000e-01 -2.046695068175403281e-02 5.908369548720154851e-01 8.065313364571489174e-01
-1.737594604492187500e-03 -3.166198730468750000e-04 -2.158203125000000000e-01 -2.406627421177294154e-02 5.814788624444617859e-01 8.132054764792586710e-01
-7.243156433105468750e-04 -3.166198730468750000e-04 -2.158203125000000000e-01 -4.258682995027509438e-02 5.828981804916184561e-01 8.114284152618435053e-01
2.892017364501953125e-04 -3.166198730468750000e-04 -2.158203125000000000e-01 -5.591281437718124275e-02 5.773790917173611259e-01 8.145594770402331264e-01
1.296043395996093750e-03 -3.151893615722656250e-04 -2.147216796875000000e-01 -5.573607852361765064e-02 5.777560254716476162e-01 8.143042825516847438e-01
2.304077148437500000e-03 -3.151893615722656250e-04 -2.147216796875000000e-01 -4.733892386304172639e-02 5.780099419015795048e-01 8.146554691097469547e-01
3.313064575195312500e-03 -3.151893615722656250e-04 -2.147216796875000000e-01 -1.900515810700851909e-03 5.827789492064048282e-01 8.126285033159568183e-01
4.322052001953125000e-03 -3.151893615722656250e-04 -2.147216796875000000e-01 4.302973976079754737e-02 5.829469749363157538e-01 8.113699932267132153e-01
5.329132080078125000e-03 -3.151893615722656250e-04 -2.147216796875000000e-01 5.260489060100251302e-02 5.835279421394852228e-01 8.103874790662267680e-01
6.370544433593750000e-03 -3.166198730468750000e-04 -2.158203125000000000e-01 7.552986116790318116e-02 5.931578656682722217e-01 8.015353931473127025e-01
7.381439208984375000e-03 -3.166198730468750000e-04 -2.158203125000000000e-01 8.112420033372130801e-02 6.018706788939054420e-01 7.944624283174150925e-01
8.392333984375000000e-03 -3.166198730468750000e-04 -2.158203125000000000e-01 1.118892361843533689e-01 5.788306200442560057e-01 8.077350506974821931e-01
9.407043457031250000e-03 -3.166198730468750000e-04 -2.158203125000000000e-01 1.466629348682014777e-01 5.725069970635923156e-01 8.066757228583699701e-01
1.042175292968750000e-02 -3.166198730468750000e-04 -2.158203125000000000e-01 2.082331817043430455e-01 5.634985885754649759e-01 7.994424824280635944e-01
1.143646240234375000e-02 -3.166198730468750000e-04 -2.158203125000000000e-01 2.624123438799436103e-01 5.365772036581958337e-01 8.020128841195665048e-01
1.250457763671875000e-02 -3.180503845214843750e-04 -2.167968750000000000e-01 3.627949783544882623e-01 5.020736582344661469e-01 7.850489445810540090e-01
1.352691650390625000e-02 -3.180503845214843750e-04 -2.167968750000000000e-01 4.895040482435149554e-01 4.404843803456404694e-01 7.525684669348882139e-01
1.461029052734375000e-02 -3.194808959960937500e-04 -2.177734375000000000e-01 5.755887922913828225e-01 3.403617896468942861e-01 7.435397732044404240e-01
1.570129394531250000e-02 -3.209114074707031250e-04 -2.187500000000000000e-01 6.112823576320020047e-01 2.773498154667742299e-01 7.412226110342341467e-01
1.679992675781250000e-02 -3.225803375244140625e-04 -2.198486328125000000e-01 5.957330982156996413e-01 2.576132073063808203e-01 7.607479944841414321e-01
1.791381835937500000e-02 -3.240108489990234375e-04 -2.208251953125000000e-01 5.982674554074560724e-01 2.424352301287948097e-01 7.637415865282483063e-01
-2.493286132812500000e-02 -1.323699951171875000e-03 -2.147216796875000000e-01 1.515519839765016030e-01 -7.149504918648782459e-01 -6.825524084896004151e-01
-2.403259277343750000e-02 -1.330375671386718750e-03 -2.158203125000000000e-01 2.002167665131771856e-01 -7.183524252070898619e-01 -6.662454799892461033e-01
-2.290344238281250000e-02 -1.323699951171875000e-03 -2.147216796875000000e-01 -9.693686361942101259e-02 6.694450692907876199e-01 7.365097037201085994e-01
-2.189636230468750000e-02 -1.323699951171875000e-03 -2.147216796875000000e-01 -7.946616033120608436e-02 6.533852373660298252e-01 7.528431848362258094e-01
-2.088928222656250000e-02 -1.323699951171875000e-03 -2.147216796875000000e-01 -8.989384509483994146e-02 6.392858923652485759e-01 7.636966966255862577e-01
-1.988220214843750000e-02 -1.323699951171875000e-03 -2.147216796875000000e-01 -2.242499328969487296e-02 6.323450406402664203e-01 7.743622338761213530e-01
-1.887512207031250000e-02 -1.323699951171875000e-03 -2.147216796875000000e-01 1.709819436749211892e-03 6.460234693644516524e-01 7.633156316674060138e-01
-1.786804199218750000e-02 -1.323699951171875000e-03 -2.147216796875000000e-01 1.749453942481678194e-03 6.460192332137023596e-01 7.633191270555738095e-01
-1.686096191406250000e-02 -1.323699951171875000e-03 -2.147216796875000000e-01 1.813520517055920971e-03 6.460140953242690109e-01 7.633233258493419271e-01
-1.585388183593750000e-02 -1.323699951171875000e-03 -2.147216796875000000e-01 1.841466255091533553e-03 6.460091879582405827e-01 7.633274121080455554e-01
-1.483917236328125000e-02 -1.323699951171875000e-03 -2.147216796875000000e-01 1.861739488691899723e-03 6.460044800503603746e-01 7.633313472411177303e-01
-1.383209228515625000e-02 -1.323699951171875000e-03 -2.147216796875000000e-01 1.945724456876101859e-03 6.459988513591868875e-01 7.633359012904796792e-01
-1.282501220703125000e-02 -1.323699951171875000e-03 -2.147216796875000000e-01 1.977387511283750302e-03 6.459936475141585532e-01 7.633402238255123651e-01
-1.181793212890625000e-02 -1.323699951171875000e-03 -2.147216796875000000e-01 2.023221719632832451e-03 6.459879198746377726e-01 7.633449508249280369e-01
-1.080322265625000000e-02 -1.323699951171875000e-03 -2.147216796875000000e-01 2.088387445546591517e-03 6.459809992268271683e-01 7.633506319351461844e-01
-9.796142578125000000e-03 -1.323699951171875000e-03 -2.147216796875000000e-01 2.135637571179409885e-03 6.459746434152731087e-01 7.633558797288950704e-01
-8.789062500000000000e-03 -1.323699951171875000e-03 -2.147216796875000000e-01 2.177375031443489796e-03 6.459679781502437601e-01 7.633614021172793196e-01
-7.781982421875000000e-03 -1.323699951171875000e-03 -2.147216796875000000e-01 2.232689957972809527e-03 6.459608932331073472e-01 7.633672376445280738e-01
-6.771087646484375000e-03 -1.323699951171875000e-03 -2.147216796875000000e-01 -1.146125435545523527e-02 6.296993535576560497e-01 7.767543780228532979e-01
-5.764007568359375000e-03 -1.323699951171875000e-03 -2.147216796875000000e-01 -3.353921152695412550e-02 6.298538878483533887e-01 7.759891759892428853e-01
-4.753112792968750000e-03 -1.323699951171875000e-03 -2.147216796875000000e-01 -4.013802167051017111e-02 6.288092858810465646e-01 7.765229044955119786e-01
-3.746032714843750000e-03 -1.323699951171875000e-03 -2.147216796875000000e-01 -3.126903926173140585e-02 6.270992492667303297e-01 7.783114921114500095e-01
-2.737045288085937500e-03 -1.323699951171875000e-03 -2.147216796875000000e-01 -1.148481005598037813e-02 6.301831704023521663e-01 7.763615593778571133e-01
-1.729011535644531250e-03 -1.323699951171875000e-03 -2.147216796875000000e-01 -2.334239752429028564e-02 6.391529222869958282e-01 7.687253569447356494e-01
-7.209777832031250000e-04 -1.323699951171875000e-03 -2.147216796875000000e-01 -4.074604431111526759e-02 6.302302241483406231e-01 7.753383935050094378e-01
2.877712249755859375e-04 -1.323699951171875000e-03 -2.147216796875000000e-01 -5.546346318343094162e-02 6.143202589117388035e-01 7.871050906596364083e-01
1.296043395996093750e-03 -1.323699951171875000e-03 -2.147216796875000000e-01 -5.610245830222853475e-02 6.038948131205656988e-01 7.950871454491789114e-01
2.304077148437500000e-03 -1.323699951171875000e-03 -2.147216796875000000e-01 -4.777779571118050128e-02 5.939820223518841313e-01 8.030583038358711789e-01
3.313064575195312500e-03 -1.323699951171875000e-03 -2.147216796875000000e-01 -2.679900686163288765e-03 5.986986482598366521e-01 8.009698787745745951e-01
4.322052001953125000e-03 -1.323699951171875000e-03 -2.147216796875000000e-01 4.191713157925008870e-02 5.987877921903246303e-01 7.998100612045364599e-01
5.329132080078125000e-03 -1.323699951171875000e-03 -2.147216796875000000e-01 5.042482422320677254e-02 6.094656610442994449e-01 7.912072706376589437e-01
6.340026855468750000e-03 -1.323699951171875000e-03 -2.147216796875000000e-01 5.006470597061132843e-02 6.197068773258397334e-01 7.832349018086035564e-01
7.347106933593750000e-03 -1.323699951171875000e-03 -2.147216796875000000e-01 8.897331043414466456e-02 6.134236671323106682e-01 7.847261653802155568e-01
8.354187011718750000e-03 -1.323699951171875000e-03 -2.147216796875000000e-01 1.303230779869318234e-01 6.171079273018166278e-01 7.760114054608140410e-01
9.361267089843750000e-03 -1.323699951171875000e-03 -2.147216796875000000e-01 1.443991303434574158e-01 6.191483157765500511e-01 7.718835755650682584e-01
1.037597656250000000e-02 -1.323699951171875000e-03 -2.147216796875000000e-01 2.037396913464202264e-01 5.937341350353417813e-01 7.784406946350503897e-01
1.143646240234375000e-02 -1.329421997070312500e-03 -2.158203125000000000e-01 2.839310602324057742e-01 5.478134668259738715e-01 7.869457151541076056e-01
1.245117187500000000e-02 -1.329421997070312500e-03 -2.158203125000000000e-01 4.181967075001972733e-01 4.869150016123079960e-01 7.668280739780465316e-01
1.352691650390625000e-02 -1.336097717285156250e-03 -2.167968750000000000e-01 5.260148777071164128e-01 4.333408884330369748e-01 7.317950688839285345e-01
1.461029052734375000e-02 -1.341819763183593750e-03 -2.177734375000000000e-01 6.077662630790779952e-01 3.324494938412528855e-01 7.211778584424147764e-01
1.570129394531250000e-02 -1.348495483398437500e-03 -2.187500000000000000e-01 6.171662249907183817e-01 2.666435793935559295e-01 7.402749842449753981e-01
1.679992675781250000e-02 -1.354217529296875000e-03 -2.198486328125000000e-01 6.244923265095665421e-01 2.337944153370487554e-01 7.452177570937750239e-01
1.791381835937500000e-02 -1.360893249511718750e-03 -2.208251953125000000e-01 -6.158482966098577371e-01 -2.234991700443120233e-01 -7.554991704510605199e-01
1.895141601562500000e-02 -1.360893249511718750e-03 -2.208251953125000000e-01 6.197132816327586280e-01 2.195635098748625613e-01 7.534900886537182485e-01
-2.481079101562500000e-02 -2.321243286132812500e-03 -2.137451171875000000e-01 6.901604554831228255e-02 -6.753258360070798494e-01 -7.342831883396292447e-01
-2.392578125000000000e-02 -2.332687377929687500e-03 -2.147216796875000000e-01 8.925417141970892754e-02 -6.674923036065052440e-01 -7.392480757568883343e-01
-2.290344238281250000e-02 -2.332687377929687500e-03 -2.147216796875000000e-01 -8.109329345823765300e-02 6.509693611337060704e-01 7.547600735473961597e-01
-2.180480957031250000e-02 -2.321243286132812500e-03 -2.137451171875000000e-01 -1.819717465318726121e-02 6.086725393334910805e-01 7.932128356853292983e-01
-2.079772949218750000e-02 -2.321243286132812500e-03 -2.137451171875000000e-01 -4.843642516501773382e-02 5.880375975172986713e-01 8.073820016716481973e-01
-1.979064941406250000e-02 -2.321243286132812500e-03 -2.137451171875000000e-01 -2.145796242055824157e-02 5.754803122980410857e-01 8.175340763577425562e-01
-1.878356933593750000e-02 -2.321243286132812500e-03 -2.137451171875000000e-01 3.766560341227650696e-03 5.739880565397308398e-01 8.188550079061240883e-01
-1.777648925781250000e-02 -2.321243286132812500e-03 -2.137451171875000000e-01 3.828419312039666247e-03 5.739773274644804912e-01 8.188622416269438764e-01
-1.678466796875000000e-02 -2.321243286132812500e-03 -2.137451171875000000e-01 3.885047064589107913e-03 5.739677533898586148e-01 8.188686857353286719e-01
-1.577758789062500000e-02 -2.321243286132812500e-03 -2.137451171875000000e-01 3.915443797491072533e-03 5.739588152812732380e-01 8.188748058529985441e-01
-1.477050781250000000e-02 -2.321243286132812500e-03 -2.137451171875000000e-01 3.963649882757842163e-03 5.739490776338089795e-01 8.188813990822523259e-01
-1.377105712890625000e-02 -2.321243286132812500e-03 -2.137451171875000000e-01 3.984753037102500492e-03 5.739393430614532221e-01 8.188881194823997012e-01
-1.276397705078125000e-02 -2.321243286132812500e-03 -2.137451171875000000e-01 4.043180956043303936e-03 5.739278966499240520e-01 8.188958554875892526e-01
-1.175689697265625000e-02 -2.321243286132812500e-03 -2.137451171875000000e-01 4.108603449845624894e-03 5.739155128709855225e-01 8.189042089669129609e-01
-1.075744628906250000e-02 -2.321243286132812500e-03 -2.137451171875000000e-01 4.175836073220379023e-03 5.739031805577422540e-01 8.189125116511511981e-01
-9.750366210937500000e-03 -2.321243286132812500e-03 -2.137451171875000000e-01 4.240138494441292663e-03 5.738902040421201001e-01 8.189212751724318506e-01
-8.750915527343750000e-03 -2.321243286132812500e-03 -2.137451171875000000e-01 4.289415640171154349e-03 5.738783869892501999e-01 8.189292996712733697e-01
-7.743835449218750000e-03 -2.321243286132812500e-03 -2.137451171875000000e-01 4.334507138823654425e-03 5.738661031577665383e-01 8.189376702132971086e-01
