4.264831542968750000e-03 3.302001953125000000e-02 -3.974609375000000000e-01 7.110966814979271522e-01 4.514068599550560834e-01 5.390485658529775570e-01
6.179809570312500000e-03 3.326416015625000000e-02 -4.003906250000000000e-01 7.447565040829847716e-01 4.191664116146984198e-01 5.192660868958690612e-01
8.117675781250000000e-03 3.350830078125000000e-02 -4.035644531250000000e-01 7.593194258657883777e-01 4.016470885092576215e-01 5.119703368310373204e-01
-1.609802246093750000e-02 3.083801269531250000e-02 -3.933105468750000000e-01 3.578658054305128844e-01 -7.316052577578956440e-01 -5.802463374503743498e-01
-1.418304443359375000e-02 3.068542480468750000e-02 -3.913574218750000000e-01 3.260139093002311084e-01 -7.437537823993994879e-01 -5.835625434427468283e-01
-1.231384277343750000e-02 3.060913085937500000e-02 -3.903808593750000000e-01 2.906209809756149509e-01 -7.485179786789437628e-01 -5.960371473416397059e-01
-1.045227050781250000e-02 3.053283691406250000e-02 -3.894042968750000000e-01 2.356717016771898987e-01 -7.523553151645091530e-01 -6.151587833822171891e-01
-8.598327636718750000e-03 3.045654296875000000e-02 -3.884277343750000000e-01 1.288007539734566387e-01 -7.498442161035664411e-01 -6.489560981698970776e-01
-6.759643554687500000e-03 3.036499023437500000e-02 -3.874511718750000000e-01 2.392788949713006361e-02 -7.336844736477984297e-01 -6.790688840113100477e-01
-4.940032958984375000e-03 3.036499023437500000e-02 -3.874511718750000000e-01 -9.004117100607861301e-02 -7.221274828621648822e-01 -6.858749784173555630e-01
-3.128051757812500000e-03 3.045654296875000000e-02 -3.884277343750000000e-01 2.628077202678689717e-01 6.807197255421796322e-01 6.837782955208400182e-01
-1.306533813476562500e-03 3.053283691406250000e-02 -3.894042968750000000e-01 4.098655891908593585e-01 6.254258124954997777e-01 6.639674328320430696e-01
5.230903625488281250e-04 3.060913085937500000e-02 -3.903808593750000000e-01 4.665435949374417968e-01 6.036547299307660763e-01 6.464812766469436589e-01
2.368927001953125000e-03 3.076171875000000000e-02 -3.923339843750000000e-01 6.288930421562602957e-01 5.305408642764773974e-01 5.683484255808338714e-01
4.241943359375000000e-03 3.100585937500000000e-02 -3.955078125000000000e-01 7.140520638365892570e-01 4.546779270559272446e-01 5.323510428080632240e-01
6.145477294921875000e-03 3.123474121093750000e-02 -3.984375000000000000e-01 7.450640955728291548e-01 4.302250934001365934e-01 5.096919290091670440e-01
8.094787597656250000e-03 3.155517578125000000e-02 -4.023437500000000000e-01 7.587828356689749754e-01 4.071702004133732067e-01 5.083906334596285381e-01
-1.593017578125000000e-02 2.870178222656250000e-02 -3.894042968750000000e-01 2.963728900640596464e-01 -7.573663220584052613e-01 -5.818585431587310897e-01
-1.406860351562500000e-02 2.862548828125000000e-02 -3.884277343750000000e-01 2.702833900250488641e-01 -7.537596528628590642e-01 -5.989935515451140224e-01
-1.221466064453125000e-02 2.854919433593750000e-02 -3.874511718750000000e-01 2.372432204745567319e-01 -7.633395083900494926e-01 -6.008564298313685548e-01
-1.036834716796875000e-02 2.847290039062500000e-02 -3.864746093750000000e-01 1.904997551724185167e-01 -7.601098777885395563e-01 -6.212429613022106833e-01
-8.529663085937500000e-03 2.839660644531250000e-02 -3.854980468750000000e-01 1.065447832880431905e-01 -7.500468224604115441e-01 -6.527464846869294179e-01
-6.721496582031250000e-03 2.839660644531250000e-02 -3.854980468750000000e-01 -3.066814069616450450e-02 -7.443801327380520361e-01 -6.670514846180317647e-01
-4.913330078125000000e-03 2.839660644531250000e-02 -3.854980468750000000e-01 -1.320762792796998653e-01 -7.227873680188997563e-01 -6.783319814692083671e-01
-3.110885620117187500e-03 2.847290039062500000e-02 -3.864746093750000000e-01 -2.657087516224564960e-01 -6.938282433800710969e-01 -6.693289385641119082e-01
-1.299858093261718750e-03 2.854919433593750000e-02 -3.874511718750000000e-01 4.294860833600493977e-01 6.188493589821301155e-01 6.576983921885861673e-01
5.202293395996093750e-04 2.862548828125000000e-02 -3.884277343750000000e-01 4.753453075595914790e-01 5.997117865945341686e-01 6.437333388917100274e-01
2.355575561523437500e-03 2.877807617187500000e-02 -3.903808593750000000e-01 6.058736564921025636e-01 5.509315734989713720e-01 5.739264009355529161e-01
4.222869873046875000e-03 2.899169921875000000e-02 -3.933105468750000000e-01 7.082325001879222759e-01 4.788728538804771784e-01 5.187364605403517182e-01
6.130218505859375000e-03 2.929687500000000000e-02 -3.974609375000000000e-01 7.400479383159728197e-01 4.499611964396587616e-01 4.998639521838605382e-01
8.056640625000000000e-03 2.951049804687500000e-02 -4.003906250000000000e-01 7.454680399286298664e-01 4.340943286785732269e-01 5.058058078492829734e-01
-1.580810546875000000e-02 2.665710449218750000e-02 -3.864746093750000000e-01 3.771933700133944800e-01 -7.048027957355943451e-01 -6.008145976432570645e-01
-1.396179199218750000e-02 2.659606933593750000e-02 -3.854980468750000000e-01 2.395513770693486477e-01 -7.628017010322779567e-01 -6.006235948132927494e-01
-1.212310791015625000e-02 2.651977539062500000e-02 -3.842773437500000000e-01 1.843915283552325368e-01 -7.601598779846392429e-01 -6.230222501429624193e-01
-1.031494140625000000e-02 2.651977539062500000e-02 -3.842773437500000000e-01 1.495246747833309242e-01 -7.541413843872757372e-01 -6.394631685917354647e-01
-8.483886718750000000e-03 2.645874023437500000e-02 -3.833007812500000000e-01 6.497235238949691793e-02 -7.380342900845258125e-01 -6.716278583295998139e-01
-6.687164306640625000e-03 2.645874023437500000e-02 -3.833007812500000000e-01 -5.663714251812158179e-02 -7.289471082563139248e-01 -6.822230921422549610e-01
-4.886627197265625000e-03 2.645874023437500000e-02 -3.833007812500000000e-01 -1.574022999305891568e-01 -7.191852574785774221e-01 -6.767548163124020855e-01
-3.095626831054687500e-03 2.651977539062500000e-02 -3.842773437500000000e-01 -2.857699576741220548e-01 -6.859865908707502014e-01 -6.691471650066646015e-01
-1.293182373046875000e-03 2.659606933593750000e-02 -3.854980468750000000e-01 4.290262525756489143e-01 6.370412850766923318e-01 6.404021203187353350e-01
5.178451538085937500e-04 2.665710449218750000e-02 -3.864746093750000000e-01 5.040452843420522022e-01 5.934489425429637643e-01 6.275003616948582330e-01
2.349853515625000000e-03 2.687072753906250000e-02 -3.894042968750000000e-01 6.153661869941642326e-01 5.412820959789870212e-01 5.730079829084913090e-01
4.199981689453125000e-03 2.700805664062500000e-02 -3.913574218750000000e-01 7.000354226683265235e-01 5.035591638256977642e-01 5.063384002194001310e-01
6.099700927734375000e-03 2.728271484375000000e-02 -3.955078125000000000e-01 7.358323826548939239e-01 4.659573149075559861e-01 4.913598328318694586e-01
8.018493652343750000e-03 2.749633789062500000e-02 -3.984375000000000000e-01 7.497951184064703956e-01 4.510073938545147154e-01 4.841483358459323094e-01
-1.573181152343750000e-02 2.471923828125000000e-02 -3.842773437500000000e-01 5.310314915083972354e-01 -6.298134080500542575e-01 -5.668691436890379576e-01
-1.389312744140625000e-02 2.465820312500000000e-02 -3.833007812500000000e-01 3.573373511880074682e-01 -6.977909832824840120e-01 -6.208041245800502983e-01
-1.205444335937500000e-02 2.458190917968750000e-02 -3.823242187500000000e-01 1.707658974245782058e-01 -7.471668747260779009e-01 -6.423244270529059330e-01
-1.023101806640625000e-02 2.452087402343750000e-02 -3.813476562500000000e-01 1.273725371287218744e-01 -7.248575216828717638e-01 -6.770212773947045237e-01
-8.445739746093750000e-03 2.452087402343750000e-02 -3.813476562500000000e-01 4.441693161031046860e-02 -7.256975424805999220e-01 -6.865786284351872437e-01
-6.652832031250000000e-03 2.452087402343750000e-02 -3.813476562500000000e-01 -7.182363327117152751e-02 -7.209202127493425927e-01 -6.892861615854266599e-01
-4.859924316406250000e-03 2.452087402343750000e-02 -3.813476562500000000e-01 -2.024330446699429964e-01 -7.058902339169140783e-01 -6.787781965313713917e-01
-3.078460693359375000e-03 2.458190917968750000e-02 -3.823242187500000000e-01 3.254788910191795948e-01 6.679899800933425391e-01 6.692181094350486692e-01
-1.286506652832031250e-03 2.465820312500000000e-02 -3.833007812500000000e-01 -4.361393515260039155e-01 -6.422848970989153417e-01 -6.302797609071012497e-01
5.164146423339843750e-04 2.478027343750000000e-02 -3.854980468750000000e-01 5.296773708043970297e-01 5.973640074920830711e-01 6.021612121440073073e-01
2.338409423828125000e-03 2.491760253906250000e-02 -3.874511718750000000e-01 6.032283217724540014e-01 5.533379628769008463e-01 5.743976763974852906e-01
4.177093505859375000e-03 2.503967285156250000e-02 -3.894042968750000000e-01 6.846045960356038629e-01 5.226412244071590996e-01 5.080971340571733830e-01
6.069183349609375000e-03 2.529907226562500000e-02 -3.933105468750000000e-01 7.295044893456080759e-01 4.907300580757018027e-01 4.764527365076433596e-01
7.980346679687500000e-03 2.549743652343750000e-02 -3.964843750000000000e-01 7.407862387516610525e-01 4.819072978215409031e-01 4.679755386582802879e-01
-1.560974121093750000e-02 2.273559570312500000e-02 -3.813476562500000000e-01 5.635767900961122789e-01 -5.939746129876060099e-01 -5.740865446874596767e-01
-1.377868652343750000e-02 2.267456054687500000e-02 -3.803710937500000000e-01 2.042721991916946200e-01 -7.017085272145818786e-01 -6.825525704821066020e-01
-1.199340820312500000e-02 2.267456054687500000e-02 -3.803710937500000000e-01 1.634625795458196640e-01 -7.160067938996166337e-01 -6.786856829032261729e-01
-1.017761230468750000e-02 2.261352539062500000e-02 -3.793945312500000000e-01 -1.239632038104925560e-01 6.986226845835512567e-01 7.046697586006583913e-01
-8.399963378906250000e-03 2.261352539062500000e-02 -3.793945312500000000e-01 -2.847501147601835120e-02 6.970328078958598628e-01 7.164736132184170714e-01
-6.618499755859375000e-03 2.261352539062500000e-02 -3.793945312500000000e-01 9.134498907683538671e-02 6.864240209350412902e-01 7.214417207605356985e-01
-4.837036132812500000e-03 2.261352539062500000e-02 -3.793945312500000000e-01 2.209931205902594120e-01 6.708945327970085026e-01 7.078577304196533859e-01
-3.063201904296875000e-03 2.267456054687500000e-02 -3.803710937500000000e-01 3.273726517335578401e-01 6.479118636397240838e-01 6.877771178600217139e-01
-1.279830932617187500e-03 2.273559570312500000e-02 -3.813476562500000000e-01 4.316556053688846428e-01 6.297117325650031239e-01 6.458611090812046429e-01
5.135536193847656250e-04 2.285766601562500000e-02 -3.833007812500000000e-01 -5.350273910122016474e-01 -6.027142336810060730e-01 -5.920145634906239795e-01
2.326965332031250000e-03 2.296447753906250000e-02 -3.854980468750000000e-01 6.013598865122314896e-01 5.656050540517452152e-01 5.643201305332979922e-01
4.158020019531250000e-03 2.308654785156250000e-02 -3.874511718750000000e-01 6.654539556590749472e-01 5.335696472785986799e-01 5.219908662042677117e-01
6.023406982421875000e-03 2.326965332031250000e-02 -3.903808593750000000e-01 7.072386015858631580e-01 5.249301910724375464e-01 4.735629366066637091e-01
7.957458496093750000e-03 2.357482910156250000e-02 -3.955078125000000000e-01 7.323317160430198314e-01 4.941526662093460032e-01 4.685118996948537395e-01
9.864807128906250000e-03 2.369689941406250000e-02 -3.974609375000000000e-01 7.345150269435019030e-01 4.876057161935258843e-01 4.719410352253606833e-01
-1.552581787109375000e-02 2.082824707031250000e-02 -3.793945312500000000e-01 5.686214957153038485e-01 -5.795120777600420992e-01 -5.838110536301357456e-01
-1.371002197265625000e-02 2.078247070312500000e-02 -3.784179687500000000e-01 -2.005719565657791970e-01 6.708688923351956435e-01 7.139368456217418668e-01
-1.193237304687500000e-02 2.078247070312500000e-02 -3.784179687500000000e-01 -1.488861875431246595e-01 6.785029649913491001e-01 7.193515341311378375e-01
-1.012420654296875000e-02 2.072143554687500000e-02 -3.774414062500000000e-01 -1.153685536865018263e-01 6.734645298584768236e-01 7.301613683582456327e-01
-8.354187011718750000e-03 2.072143554687500000e-02 -3.774414062500000000e-01 -1.744296323474786928e-02 6.826167170346119084e-01 7.305683819181336691e-01
-6.584167480468750000e-03 2.072143554687500000e-02 -3.774414062500000000e-01 9.216638594256129635e-02 6.762097468165656489e-01 7.309211555376975422e-01
-4.821777343750000000e-03 2.078247070312500000e-02 -3.784179687500000000e-01 2.148305131366334275e-01 6.616426215450936787e-01 7.183849190930908790e-01
-3.046035766601562500e-03 2.078247070312500000e-02 -3.784179687500000000e-01 3.241335668959934302e-01 6.474968700245382625e-01 6.896993795268391292e-01
-1.273155212402343750e-03 2.082824707031250000e-02 -3.793945312500000000e-01 4.151643693170371519e-01 6.321299853682982306e-01 6.542554761313519318e-01
5.111694335937500000e-04 2.093505859375000000e-02 -3.813476562500000000e-01 5.261715356943084121e-01 5.968210678625806009e-01 6.057624352668811163e-01
2.313613891601562500e-03 2.105712890625000000e-02 -3.833007812500000000e-01 5.997977498755524550e-01 5.627192291887697095e-01 5.688494777578873007e-01
4.135131835937500000e-03 2.116394042968750000e-02 -3.854980468750000000e-01 6.603657178506576741e-01 5.426698087218901900e-01 5.190631920964273727e-01
5.992889404296875000e-03 2.133178710937500000e-02 -3.884277343750000000e-01 7.020531783202281773e-01 5.216470664316995576e-01 4.847738368493784145e-01
7.896423339843750000e-03 2.154541015625000000e-02 -3.923339843750000000e-01 7.262968438344756805e-01 5.055729067901265639e-01 4.657133566431839178e-01
9.788513183593750000e-03 2.165222167968750000e-02 -3.945312500000000000e-01 7.300241131929094962e-01 4.980280381537181000e-01 4.680094735896537794e-01
-1.548767089843750000e-02 1.899719238281250000e-02 -3.784179687500000000e-01 5.804113194980187185e-01 -5.842024343819177679e-01 -5.673008160233949937e-01
-1.367187500000000000e-02 1.895141601562500000e-02 -3.774414062500000000e-01 2.033829179535393272e-01 -6.544253020817988320e-01 -7.282601957266721104e-01
-1.187133789062500000e-02 1.889038085937500000e-02 -3.764648437500000000e-01 -1.598304471874938681e-01 6.623418808381601464e-01 7.319545484793534840e-01
-1.010131835937500000e-02 1.889038085937500000e-02 -3.764648437500000000e-01 -1.369954303179186095e-01 6.715352312717935979e-01 7.281982458319622431e-01
-8.308410644531250000e-03 1.884460449218750000e-02 -3.752441406250000000e-01 -3.113660054269157262e-02 6.857902030589480002e-01 7.271329379797146775e-01
-6.565093994140625000e-03 1.889038085937500000e-02 -3.764648437500000000e-01 9.143056239096067350e-02 6.930732495118255843e-01 7.150453993083177862e-01
-4.798889160156250000e-03 1.889038085937500000e-02 -3.764648437500000000e-01 2.054628198290868180e-01 6.752617622220040694e-01 7.083830758485933909e-01
-3.038406372070312500e-03 1.895141601562500000e-02 -3.774414062500000000e-01 3.199488547141001171e-01 6.641327723865172450e-01 6.756925269746100193e-01
-1.269340515136718750e-03 1.899719238281250000e-02 -3.784179687500000000e-01 4.231499198434724995e-01 6.270399382914443320e-01 6.540375074289885848e-01
5.083084106445312500e-04 1.904296875000000000e-02 -3.793945312500000000e-01 5.196611911507614812e-01 5.992016948784365526e-01 6.090234603581218265e-01
2.302169799804687500e-03 1.914978027343750000e-02 -3.813476562500000000e-01 6.072084198409239963e-01 5.553156633958956645e-01 5.682626583380826490e-01
4.112243652343750000e-03 1.925659179687500000e-02 -3.833007812500000000e-01 6.474250447333537162e-01 5.334942659559910316e-01 5.442652658806119703e-01
5.962371826171875000e-03 1.939392089843750000e-02 -3.864746093750000000e-01 7.081019369978509559e-01 4.934008594753284127e-01 5.051210139054789217e-01
7.812500000000000000e-03 1.950073242187500000e-02 -3.884277343750000000e-01 7.242041062857835776e-01 4.944553180059512165e-01 4.806686498352512049e-01
9.742736816406250000e-03 1.969909667968750000e-02 -3.923339843750000000e-01 7.300477902150730447e-01 4.957936878873053232e-01 4.703390724288109559e-01
-1.757812500000000000e-02 1.754760742187500000e-02 -3.854980468750000000e-01 8.168751562421849854e-01 -3.865832659312928854e-01 -4.280985372740734318e-01
-1.540374755859375000e-02 1.713562011718750000e-02 -3.764648437500000000e-01 4.040300017391587617e-01 -5.740621051121944651e-01 -7.121884983407209546e-01
-1.359558105468750000e-02 1.708984375000000000e-02 -3.752441406250000000e-01 2.066489803836421002e-01 -6.447437524054999702e-01 -7.359359297115994902e-01
-1.183319091796875000e-02 1.708984375000000000e-02 -3.752441406250000000e-01 -1.979727777813101997e-01 6.482464647713805928e-01 7.352437012099860558e-01
-1.004791259765625000e-02 1.704406738281250000e-02 -3.742675781250000000e-01 -1.578679821956665841e-01 6.743010868354919474e-01 7.213846023377149530e-01
-8.285522460937500000e-03 1.704406738281250000e-02 -3.742675781250000000e-01 -2.974123930772611807e-02 7.013345587167526540e-01 7.122115524435268519e-01
-6.530761718750000000e-03 1.704406738281250000e-02 -3.742675781250000000e-01 7.207482870663875496e-02 6.984550347968219164e-01 7.120152971909234907e-01
-4.772186279296875000e-03 1.704406738281250000e-02 -3.742675781250000000e-01 2.072943379440435330e-01 6.905559337467468417e-01 6.929369089776491464e-01
-3.023147583007812500e-03 1.708984375000000000e-02 -3.752441406250000000e-01 3.096729475804810283e-01 6.720108328999293557e-01 6.726842543139833763e-01
-1.262664794921875000e-03 1.713562011718750000e-02 -3.764648437500000000e-01 -4.253310551400445449e-01 -6.423534801632341251e-01 -6.375543114556107005e-01
5.054473876953125000e-04 1.718139648437500000e-02 -3.774414062500000000e-01 5.042715166558114914e-01 6.042742937075856746e-01 6.168977350046329633e-01
2.288818359375000000e-03 1.727294921875000000e-02 -3.793945312500000000e-01 5.951651684132026610e-01 5.578960976713036590e-01 5.783860013095192265e-01
4.093170166015625000e-03 1.736450195312500000e-02 -3.813476562500000000e-01 6.597108915728721046e-01 5.253366512399021415e-01 5.374038913184118194e-01
5.931854248046875000e-03 1.750183105468750000e-02 -3.842773437500000000e-01 7.138001259970148116e-01 4.732167560017486174e-01 5.162899204573215828e-01
7.778167724609375000e-03 1.757812500000000000e-02 -3.864746093750000000e-01 7.306909793553214572e-01 4.569715838019593468e-01 5.072155994114238009e-01
9.689331054687500000e-03 1.776123046875000000e-02 -3.903808593750000000e-01 7.442079884660675049e-01 4.733705493150138777e-01 4.712481224837840044e-01
1.158142089843750000e-02 1.785278320312500000e-02 -3.923339843750000000e-01 7.519234739012972124e-01 4.715045210153896993e-01 4.607543554414360032e-01
-1.757812500000000000e-02 1.573181152343750000e-02 -3.854980468750000000e-01 8.353820073309674576e-01 -3.445849586751786320e-01 -4.282500532195057108e-01
-1.536560058593750000e-02 1.531982421875000000e-02 -3.752441406250000000e-01 4.865707598001987044e-01 -5.216603892114012320e-01 -7.007990682323047560e-01
-1.356506347656250000e-02 1.528167724609375000e-02 -3.742675781250000000e-01 4.315557909157475835e-01 -5.643517121354090227e-01 -7.037519053877694386e-01
-1.177215576171875000e-02 1.524353027343750000e-02 -3.732910156250000000e-01 -2.625655309320383823e-01 6.135724209299471266e-01 7.447068055554080246e-01
-9.994506835937500000e-03 1.519775390625000000e-02 -3.723144531250000000e-01 -1.700056791655626398e-01 6.436733689094915611e-01 7.461787072867741566e-01
-8.239746093750000000e-03 1.519775390625000000e-02 -3.723144531250000000e-01 -7.000293929951016680e-02 6.751439959623729559e-01 7.343569794080999635e-01
-6.496429443359375000e-03 1.519775390625000000e-02 -3.723144531250000000e-01 5.908599622860823825e-02 6.675811274074814339e-01 7.421888461699143180e-01
-4.745483398437500000e-03 1.519775390625000000e-02 -3.723144531250000000e-01 2.037825609088970980e-01 6.701538524480123993e-01 7.136991536484397214e-01
-3.005981445312500000e-03 1.524353027343750000e-02 -3.732910156250000000e-01 3.027594328482830499e-01 6.624374905557982585e-01 6.852104033999503185e-01
-1.255989074707031250e-03 1.528167724609375000e-02 -3.742675781250000000e-01 3.994368367830708477e-01 6.437374395528977500e-01 6.527268359264951636e-01
5.030632019042968750e-04 1.531982421875000000e-02 -3.752441406250000000e-01 4.945688478813703437e-01 5.992735171189270682e-01 6.295021099132273035e-01
2.277374267578125000e-03 1.540374755859375000e-02 -3.774414062500000000e-01 5.968153332278678391e-01 5.611697624783966720e-01 5.734979997384898054e-01
4.081726074218750000e-03 1.552581787109375000e-02 -3.803710937500000000e-01 6.746066890179807096e-01 5.069898591165566959e-01 5.365324760768648282e-01
5.901336669921875000e-03 1.560974121093750000e-02 -3.823242187500000000e-01 7.255359711253877020e-01 4.556699642066927014e-01 5.157154625595512520e-01
7.755279541015625000e-03 1.573181152343750000e-02 -3.854980468750000000e-01 7.401371877292680646e-01 4.432261034877032491e-01 5.057149043950730505e-01
9.635925292968750000e-03 1.585388183593750000e-02 -3.884277343750000000e-01 7.485192707130423617e-01 4.515003405217061783e-01 4.856607291927140246e-01
-1.757812500000000000e-02 1.392364501953125000e-02 -3.854980468750000000e-01 8.524388769517267095e-01 -3.317169621588872408e-01 -4.041185693300404225e-01
-1.528167724609375000e-02 1.348876953125000000e-02 -3.732910156250000000e-01 -5.628769816304294293e-01 4.637711504797391582e-01 6.841679790324275423e-01
-1.348876953125000000e-02 1.345062255859375000e-02 -3.723144531250000000e-01 -4.849726525424412626e-01 5.147877594965176717e-01 7.069618723513341196e-01
-1.171112060546875000e-02 1.341247558593750000e-02 -3.713378906250000000e-01 -3.089153281258473216e-01 5.743146488268029426e-01 7.581121316743626437e-01
-9.963989257812500000e-03 1.341247558593750000e-02 -3.713378906250000000e-01 -2.105047231699780641e-01 6.247397173834287054e-01 7.519228996691112998e-01
-8.201599121093750000e-03 1.338195800781250000e-02 -3.703613281250000000e-01 -8.449154962325879092e-02 6.318804205880134139e-01 7.704468262766585029e-01
-6.462097167968750000e-03 1.338195800781250000e-02 -3.703613281250000000e-01 4.235974507809443790e-02 6.394858005928377720e-01 7.676350453418970821e-01
-4.734039306640625000e-03 1.341247558593750000e-02 -3.713378906250000000e-01 1.973783795569955257e-01 6.541711268931058587e-01 7.301382828087146226e-01
-2.990722656250000000e-03 1.341247558593750000e-02 -3.713378906250000000e-01 3.177758307843333574e-01 6.323173106077253358e-01 7.065361562405281237e-01
-1.249313354492187500e-03 1.345062255859375000e-02 -3.723144531250000000e-01 3.919572855643845832e-01 6.188040924945641397e-01 6.807723418331406151e-01
5.016326904296875000e-04 1.352691650390625000e-02 -3.742675781250000000e-01 5.151697148928798820e-01 6.004748560915880162e-01 6.115800128020661974e-01
2.265930175781250000e-03 1.355743408203125000e-02 -3.752441406250000000e-01 -5.794282318186819714e-01 -5.834486600487009955e-01 -5.690787162237321839e-01
4.058837890625000000e-03 1.367187500000000000e-02 -3.784179687500000000e-01 6.787189240243234334e-01 5.205842810329610604e-01 5.180083286132181053e-01
5.882263183593750000e-03 1.377868652343750000e-02 -3.813476562500000000e-01 7.477677556612988274e-01 4.307970603331961468e-01 5.052299242934255030e-01
7.736206054687500000e-03 1.388549804687500000e-02 -3.842773437500000000e-01 7.555318461368335514e-01 4.238107081384664965e-01 4.995559159295779872e-01
9.613037109375000000e-03 1.399230957031250000e-02 -3.874511718750000000e-01 7.553520795751835770e-01 4.299792694033939822e-01 4.945311555046548735e-01
-1.519775390625000000e-02 1.167297363281250000e-02 -3.713378906250000000e-01 -6.033147457868931474e-01 4.271106747902138623e-01 6.734892642027375809e-01
-1.345062255859375000e-02 1.167297363281250000e-02 -3.713378906250000000e-01 -5.280555017296143516e-01 4.607908756153662466e-01 7.133226170833989466e-01
-1.168060302734375000e-02 1.164245605468750000e-02 -3.703613281250000000e-01 -3.346180021747006128e-01 5.419522511589838221e-01 7.709205861074938104e-01
-9.910583496093750000e-03 1.160430908203125000e-02 -3.693847656250000000e-01 -2.356104727996199411e-01 5.799916533913100913e-01 7.798059932467522604e-01
-8.178710937500000000e-03 1.160430908203125000e-02 -3.693847656250000000e-01 -1.168617690510924123e-01 6.195435060141171180e-01 7.762146424089054753e-01
-6.443023681640625000e-03 1.160430908203125000e-02 -3.693847656250000000e-01 4.645891418566493181e-02 6.406982317657559101e-01 7.663858982946663012e-01
-4.707336425781250000e-03 1.160430908203125000e-02 -3.693847656250000000e-01 1.720028981913236388e-01 6.439209146072096823e-01 7.455071151539734986e-01
-2.981185913085937500e-03 1.164245605468750000e-02 -3.703613281250000000e-01 3.133759705693743292e-01 6.320731666102077373e-01 7.087164546707287460e-01
-1.246452331542968750e-03 1.167297363281250000e-02 -3.713378906250000000e-01 4.020615688388902709e-01 6.061437781818305170e-01 6.862479253405916468e-01
4.987716674804687500e-04 1.170349121093750000e-02 -3.723144531250000000e-01 4.660631471472251874e-01 5.959652626428224576e-01 6.539193746894913506e-01
2.260208129882812500e-03 1.176452636718750000e-02 -3.742675781250000000e-01 -5.655992521520970540e-01 -5.940331830908973654e-01 -5.720332711931054304e-01
4.039764404296875000e-03 1.182556152343750000e-02 -3.764648437500000000e-01 6.862395131868213038e-01 5.105521248911027987e-01 5.180847983779240939e-01
5.851745605468750000e-03 1.192474365234375000e-02 -3.793945312500000000e-01 7.562912771619658692e-01 4.403077228022751477e-01 4.838931838013399434e-01
7.694244384765625000e-03 1.201629638671875000e-02 -3.823242187500000000e-01 7.657416077031719004e-01 4.166468599591216515e-01 4.899440624381171117e-01
9.590148925781250000e-03 1.214599609375000000e-02 -3.864746093750000000e-01 7.603620713012904098e-01 4.117109765317968351e-01 5.023381254987977496e-01
-1.933288574218750000e-02 1.027679443359375000e-02 -3.842773437500000000e-01 8.990507537837415519e-01 -2.781107562416416656e-01 -3.381747320300387827e-01
-1.721191406250000000e-02 1.008605957031250000e-02 -3.774414062500000000e-01 8.800797954003746204e-01 -2.808197799733325173e-01 -3.828835396093231425e-01
-1.523590087890625000e-02 9.956359863281250000e-03 -3.723144531250000000e-01 6.881204901257088613e-01 -3.445098165732469186e-01 -6.385946894187438660e-01
-1.342010498046875000e-02 9.902954101562500000e-03 -3.703613281250000000e-01 -5.531346182291556612e-01 4.609454609826366123e-01 6.939534394438799936e-01
-1.164245605468750000e-02 9.872436523437500000e-03 -3.693847656250000000e-01 -3.799692132656738441e-01 5.247227824096969417e-01 7.617672863745795775e-01
-9.887695312500000000e-03 9.849548339843750000e-03 -3.684082031250000000e-01 -2.612341465246201810e-01 5.795117633006195978e-01 7.719603855676533399e-01
-8.132934570312500000e-03 9.819030761718750000e-03 -3.674316406250000000e-01 -1.367050232978859470e-01 6.183898568702772547e-01 7.738899931676870292e-01
-6.408691406250000000e-03 9.819030761718750000e-03 -3.674316406250000000e-01 -6.504978268803825138e-04 6.313485238226507201e-01 7.754989479809351050e-01
-4.695892333984375000e-03 9.849548339843750000e-03 -3.684082031250000000e-01 1.513749831329266882e-01 6.285948350398534723e-01 7.628591926710496240e-01
-2.965927124023437500e-03 9.849548339843750000e-03 -3.684082031250000000e-01 2.803912435737144215e-01 6.191756049150273222e-01 7.334864148743969192e-01
-1.239776611328125000e-03 9.872436523437500000e-03 -3.693847656250000000e-01 3.916126335918057588e-01 6.209499900761212832e-01 6.790144733625013140e-01
4.963874816894531250e-04 9.902954101562500000e-03 -3.703613281250000000e-01 4.594834607066581311e-01 5.993434849319007052e-01 6.554863357894787912e-01
2.246856689453125000e-03 9.956359863281250000e-03 -3.723144531250000000e-01 5.531414028207234379e-01 5.807710897129932937e-01 5.972767615093561577e-01
4.016876220703125000e-03 1.000976562500000000e-02 -3.742675781250000000e-01 6.858859958095822051e-01 5.206172379475271228e-01 5.084467448063619832e-01
5.821228027343750000e-03 1.008605957031250000e-02 -3.774414062500000000e-01 7.576280241298098961e-01 4.615654952127262733e-01 4.614727193260628191e-01
7.675170898437500000e-03 1.019287109375000000e-02 -3.813476562500000000e-01 7.707398010791703946e-01 4.305703261712487406e-01 4.696481164161369071e-01
9.536743164062500000e-03 1.027679443359375000e-02 -3.842773437500000000e-01 7.618006582757648193e-01 4.216058826787291713e-01 4.918416785321280127e-01
-1.924133300781250000e-02 8.422851562500000000e-03 -3.823242187500000000e-01 8.996102526599499827e-01 -2.659434631044840791e-01 -3.463747504381558540e-01
-1.712036132812500000e-02 8.270263671875000000e-03 -3.752441406250000000e-01 8.685150994914530020e-01 -2.604533528178961110e-01 -4.217174088904419582e-01
-1.519775390625000000e-02 8.178710937500000000e-03 -3.713378906250000000e-01 7.673075939213158669e-01 -3.128919233807575528e-01 -5.597657551099131101e-01
-1.338195800781250000e-02 8.140563964843750000e-03 -3.693847656250000000e-01 -5.802261497624779940e-01 4.520022905955389803e-01 6.775186672175139702e-01
-1.158142089843750000e-02 8.094787597656250000e-03 -3.674316406250000000e-01 -4.336758430884788962e-01 5.052148282382387112e-01 7.461120830342475863e-01
-9.857177734375000000e-03 8.094787597656250000e-03 -3.674316406250000000e-01 -2.745150822351881126e-01 5.879824616305454610e-01 7.608666732353915885e-01
-8.110046386718750000e-03 8.071899414062500000e-03 -3.662109375000000000e-01 -1.411944063824982221e-01 6.254592169416867131e-01 7.673753368130787900e-01
-6.389617919921875000e-03 8.071899414062500000e-03 -3.662109375000000000e-01 9.833334668016190105e-03 6.042440055990395686e-01 7.967386567921344032e-01
-4.669189453125000000e-03 8.071899414062500000e-03 -3.662109375000000000e-01 1.478214721821825006e-01 6.257110935603122925e-01 7.659206484730975983e-01
-2.958297729492187500e-03 8.094787597656250000e-03 -3.674316406250000000e-01 2.865792964546808319e-01 6.020672617625357770e-01 7.452431275478510475e-01
-1.233100891113281250e-03 8.094787597656250000e-03 -3.674316406250000000e-01 3.847355095096051669e-01 5.753171623697357351e-01 7.217955045615201959e-01
4.935264587402343750e-04 8.117675781250000000e-03 -3.684082031250000000e-01 4.679488641154795348e-01 5.559924920250166602e-01 6.869470207991620336e-01
2.235412597656250000e-03 8.163452148437500000e-03 -3.703613281250000000e-01 5.451538787826636367e-01 5.314908854696500651e-01 6.483245229905345575e-01
3.993988037109375000e-03 8.201599121093750000e-03 -3.723144531250000000e-01 6.831223961321075677e-01 4.931609858720364392e-01 5.386427702257302608e-01
5.760192871093750000e-03 8.224487304687500000e-03 -3.732910156250000000e-01 7.455172794537332503e-01 4.528072913457605875e-01 4.890496323892082331e-01
7.637023925781250000e-03 8.361816406250000000e-03 -3.793945312500000000e-01 7.770500355289479133e-01 4.495910377892881615e-01 4.405237122153718987e-01
9.490966796875000000e-03 8.422851562500000000e-03 -3.823242187500000000e-01 7.773551940743599342e-01 4.255690367553991993e-01 4.632600751205479539e-01
-1.913452148437500000e-02 6.595611572265625000e-03 -3.803710937500000000e-01 9.109082719212965307e-01 -2.313905781805505324e-01 -3.416204333388561665e-01
-1.707458496093750000e-02 6.492614746093750000e-03 -3.742675781250000000e-01 8.459346679202280894e-01 -2.521831219325523787e-01 -4.698917009514477217e-01
-1.511383056640625000e-02 6.404876708984375000e-03 -3.693847656250000000e-01 7.450740036786430709e-01 -3.306172293987509891e-01 -5.792727998680509138e-01
-1.334381103515625000e-02 6.385803222656250000e-03 -3.684082031250000000e-01 -6.192113574997462067e-01 4.419910338493264201e-01 6.490155781952579028e-01
-1.155090332031250000e-02 6.351470947265625000e-03 -3.662109375000000000e-01 -4.383713063550553901e-01 5.394846356095773787e-01 7.188789367520539431e-01
-9.803771972656250000e-03 6.336212158203125000e-03 -3.652343750000000000e-01 -2.542528571396662773e-01 6.030954471725487043e-01 7.560630702765873679e-01
-8.087158203125000000e-03 6.336212158203125000e-03 -3.652343750000000000e-01 -1.552793586840042761e-01 6.133028372158504382e-01 7.744339549823939794e-01
-6.374359130859375000e-03 6.336212158203125000e-03 -3.652343750000000000e-01 1.782333470439283196e-02 6.183200326336839581e-01 7.857242938740632843e-01
-4.657745361328125000e-03 6.336212158203125000e-03 -3.652343750000000000e-01 1.494611618550829579e-01 6.027482127968981640e-01 7.838086201791056862e-01
-2.941131591796875000e-03 6.336212158203125000e-03 -3.652343750000000000e-01 2.654294257336248242e-01 5.735284006347983743e-01 7.749918668089417206e-01
-1.229286193847656250e-03 6.351470947265625000e-03 -3.662109375000000000e-01 3.942225520640121883e-01 5.338524745246471248e-01 7.480575612130715424e-01
4.920959472656250000e-04 6.370544433593750000e-03 -3.674316406250000000e-01 4.997688492128666282e-01 4.995061420028948374e-01 7.076190440186235220e-01
2.229690551757812500e-03 6.404876708984375000e-03 -3.693847656250000000e-01 5.802238375425204930e-01 4.709256355555637152e-01 6.645068427969866853e-01
3.974914550781250000e-03 6.423950195312500000e-03 -3.703613281250000000e-01 6.725269152405375372e-01 4.167449146989204989e-01 6.115809221596404388e-01
5.729675292968750000e-03 6.439208984375000000e-03 -3.713378906250000000e-01 7.467804590308556589e-01 4.054785591890905372e-01 5.271679846572662198e-01
7.614135742187500000e-03 6.561279296875000000e-03 -3.784179687500000000e-01 7.871315966056731117e-01 4.322656247024417864e-01 4.399662252100853266e-01
9.468078613281250000e-03 6.614685058593750000e-03 -3.813476562500000000e-01 7.862766677289476647e-01 4.196283752480225449e-01 4.535207034654168412e-01
-1.904296875000000000e-02 4.783630371093750000e-03 -3.784179687500000000e-01 8.941836592219569724e-01 -2.515277795065437583e-01 -3.703638207451407371e-01
-1.707458496093750000e-02 4.734039306640625000e-03 -3.742675781250000000e-01 8.504298943409661637e-01 -2.673779228467053626e-01 -4.530761979903537573e-01
-1.511383056640625000e-02 4.669189453125000000e-03 -3.693847656250000000e-01 7.832612300325020316e-01 -3.369071523148412517e-01 -5.224896326694686843e-01
-1.327514648437500000e-02 4.631042480468750000e-03 -3.662109375000000000e-01 -4.804334574805919633e-01 5.515630869106351586e-01 6.818811143380166806e-01
-1.152038574218750000e-02 4.619598388671875000e-03 -3.652343750000000000e-01 -4.390349018716123708e-01 5.536792614887426911e-01 7.075928422022542685e-01
-9.773254394531250000e-03 4.604339599609375000e-03 -3.642578125000000000e-01 -2.264034341551089680e-01 5.997078353637377290e-01 7.675232877288565847e-01
-8.041381835937500000e-03 4.592895507812500000e-03 -3.632812500000000000e-01 -1.287075733323927440e-01 6.063504932061918318e-01 7.847123294274751526e-01
-6.336212158203125000e-03 4.592895507812500000e-03 -3.632812500000000000e-01 6.445340754133380146e-02 5.778300585761857455e-01 8.136081253663537405e-01
-4.642486572265625000e-03 4.604339599609375000e-03 -3.642578125000000000e-01 1.657478046833993079e-01 5.726190714304555396e-01 8.028916890071514656e-01
-2.933502197265625000e-03 4.604339599609375000e-03 -3.642578125000000000e-01 2.886754474931103598e-01 5.481230017124777421e-01 7.850016949079507977e-01
-1.226425170898437500e-03 4.619598388671875000e-03 -3.652343750000000000e-01 4.093546584593636406e-01 5.006956256297163677e-01 7.627140054259424762e-01
4.906654357910156250e-04 4.631042480468750000e-03 -3.662109375000000000e-01 5.299408691121952897e-01 4.436416760711538454e-01 7.227342101335653135e-01
2.216339111328125000e-03 4.642486572265625000e-03 -3.674316406250000000e-01 6.030563349660860162e-01 4.029565587482729638e-01 6.884395896656595459e-01
3.963470458984375000e-03 4.669189453125000000e-03 -3.693847656250000000e-01 6.896120374530286812e-01 3.506068049342777049e-01 6.336482511091304781e-01
5.729675292968750000e-03 4.695892333984375000e-03 -3.713378906250000000e-01 7.407378997571235635e-01 3.444661873167021993e-01 5.767585367022323162e-01
7.575988769531250000e-03 4.756927490234375000e-03 -3.764648437500000000e-01 7.978650690641433396e-01 3.918034711719421415e-01 4.581499443903568336e-01
9.414672851562500000e-03 4.795074462890625000e-03 -3.793945312500000000e-01 8.099684485314202487e-01 3.907083196222315147e-01 4.373764069558124246e-01
-1.707458496093750000e-02 2.975463867187500000e-03 -3.742675781250000000e-01 8.595823519254058853e-01 -2.708412223829939069e-01 -4.333165269366880401e-01
-1.507568359375000000e-02 2.927780151367187500e-03 -3.684082031250000000e-01 7.789141497258279534e-01 -3.830285610967170129e-01 -4.965701045583281736e-01
-1.323699951171875000e-02 2.902984619140625000e-03 -3.652343750000000000e-01 5.024889334420659104e-01 -5.511455385810866137e-01 -6.661407261760979859e-01
-1.145935058593750000e-02 2.887725830078125000e-03 -3.632812500000000000e-01 -4.142685865976740711e-01 5.941018180689880968e-01 6.895103827539427188e-01
-9.750366210937500000e-03 2.887725830078125000e-03 -3.632812500000000000e-01 -2.896226191878465417e-01 5.894552457842309190e-01 7.540963145860239969e-01
-8.018493652343750000e-03 2.880096435546875000e-03 -3.623046875000000000e-01 -1.030461952970428974e-01 6.185661374816269209e-01 7.789463493693674634e-01
-6.320953369140625000e-03 2.880096435546875000e-03 -3.623046875000000000e-01 6.447707407889352593e-02 6.069801737128949215e-01 7.920970746301799759e-01
-4.619598388671875000e-03 2.880096435546875000e-03 -3.623046875000000000e-01 1.823591716510987448e-01 6.052731332829284217e-01 7.748480926224129428e-01
-2.925872802734375000e-03 2.887725830078125000e-03 -3.632812500000000000e-01 3.228255319034413762e-01 5.468312517239308779e-01 7.725019469809114581e-01
-1.222610473632812500e-03 2.895355224609375000e-03 -3.642578125000000000e-01 4.293495970619249369e-01 4.961469811978531652e-01 7.546503140866105408e-01
4.892349243164062500e-04 2.902984619140625000e-03 -3.652343750000000000e-01 5.569668086938343032e-01 4.334389018710914088e-01 7.084622024908515669e-01
2.216339111328125000e-03 2.920150756835937500e-03 -3.674316406250000000e-01 6.419951847174252269e-01 3.508862477483286058e-01 6.817044989881889672e-01
3.963470458984375000e-03 2.935409545898437500e-03 -3.693847656250000000e-01 7.176487395154560467e-01 3.058692961606354066e-01 6.256390815302980135e-01
5.729675292968750000e-03 2.950668334960937500e-03 -3.713378906250000000e-01 7.641841936129700752e-01 2.873086072016974302e-01 5.774740534949733828e-01
7.534027099609375000e-03 2.975463867187500000e-03 -3.742675781250000000e-01 7.946494371087700070e-01 3.367648986003450307e-01 5.050957089239763720e-01
9.338378906250000000e-03 2.990722656250000000e-03 -3.764648437500000000e-01 8.125146134989262858e-01 3.537735350493423914e-01 4.633187765992031748e-01
1.116943359375000000e-02 3.007888793945312500e-03 -3.784179687500000000e-01 8.157268498106795551e-01 3.631662450133856801e-01 4.502221506998764777e-01
-1.707458496093750000e-02 1.217842102050781250e-03 -3.742675781250000000e-01 8.601377376144954123e-01 -2.898237303782167928e-01 -4.197204756037906104e-01
-1.499176025390625000e-02 1.191139221191406250e-03 -3.662109375000000000e-01 7.327211615854994919e-01 -4.391292640898463717e-01 -5.198895928797827581e-01
-1.316070556640625000e-02 1.181602478027343750e-03 -3.632812500000000000e-01 -4.513698701372562683e-01 5.842927821803319821e-01 6.744384219661893054e-01
-1.142120361328125000e-02 1.177787780761718750e-03 -3.623046875000000000e-01 -3.827971240721371737e-01 5.737323477781944847e-01 7.240839418983282538e-01
-9.696960449218750000e-03 1.174926757812500000e-03 -3.613281250000000000e-01 -2.789864586537169067e-01 5.833463154446385523e-01 7.628064185263664365e-01
-7.995605468750000000e-03 1.174926757812500000e-03 -3.613281250000000000e-01 -8.536741301073187682e-02 6.214084729139723873e-01 7.788221328304556490e-01
-6.301879882812500000e-03 1.174926757812500000e-03 -3.613281250000000000e-01 5.157979819898681623e-02 6.282394067588175091e-01 7.763084259578023616e-01
-4.604339599609375000e-03 1.174926757812500000e-03 -3.613281250000000000e-01 2.173392848888506534e-01 6.002674648088054399e-01 7.697029335633405189e-01
-2.918243408203125000e-03 1.177787780761718750e-03 -3.623046875000000000e-01 3.424256847225610190e-01 5.548410707599007452e-01 7.582189898969110553e-01
-1.218795776367187500e-03 1.181602478027343750e-03 -3.632812500000000000e-01 4.442128277840749484e-01 5.195283902997470671e-01 7.299076758773190843e-01
4.882812500000000000e-04 1.184463500976562500e-03 -3.642578125000000000e-01 5.655033318858025959e-01 4.627337044515063003e-01 6.827030836246763545e-01
2.210617065429687500e-03 1.191139221191406250e-03 -3.662109375000000000e-01 6.597878236989771494e-01 4.028445484720685754e-01 6.343471427104425686e-01
3.952026367187500000e-03 1.197814941406250000e-03 -3.684082031250000000e-01 7.277151791132835390e-01 3.138723971750480568e-01 6.098481256671289819e-01
5.714416503906250000e-03 1.204490661621093750e-03 -3.703613281250000000e-01 7.769297768752002620e-01 2.943138772565530581e-01 5.565603861746413195e-01
7.514953613281250000e-03 1.214027404785156250e-03 -3.732910156250000000e-01 7.931299591879434896e-01 2.960418064091988044e-01 5.322632024633202619e-01
9.315490722656250000e-03 1.220703125000000000e-03 -3.752441406250000000e-01 8.082186213693037802e-01 3.136172565228165232e-01 4.984243939485745178e-01
1.113891601562500000e-02 1.227378845214843750e-03 -3.774414062500000000e-01 8.142615429170148023e-01 3.392487058658189003e-01 4.710503744768378964e-01
-1.490783691406250000e-02 -5.259513854980468750e-04 -3.642578125000000000e-01 5.777571752058461296e-01 -5.764451470503233477e-01 -5.778474183902638783e-01
-1.309204101562500000e-02 -5.216598510742187500e-04 -3.613281250000000000e-01 -3.301898243678696443e-01 6.602639116881852122e-01 6.745563333081469048e-01
-1.136016845703125000e-02 -5.202293395996093750e-04 -3.603515625000000000e-01 -2.665986333823012755e-01 6.748682135816295169e-01 6.880974225906019148e-01
-9.666442871093750000e-03 -5.202293395996093750e-04 -3.603515625000000000e-01 -2.070497578917672721e-01 6.662336647340292295e-01 7.164238282832484650e-01
-7.957458496093750000e-03 -5.187988281250000000e-04 -3.593750000000000000e-01 -6.356074286928635464e-02 6.835133345729375032e-01 7.271654237014354427e-01
-6.267547607421875000e-03 -5.187988281250000000e-04 -3.593750000000000000e-01 6.727693613699048392e-02 6.746566894788539326e-01 7.350592936664718247e-01
-4.592895507812500000e-03 -5.202293395996093750e-04 -3.603515625000000000e-01 2.316127005820585449e-01 6.381041777381942781e-01 7.342878286354396211e-01
-2.901077270507812500e-03 -5.202293395996093750e-04 -3.603515625000000000e-01 3.605294066625139293e-01 6.132395677994028071e-01 7.028198769363150911e-01
-1.212120056152343750e-03 -5.216598510742187500e-04 -3.613281250000000000e-01 4.405500889189412073e-01 5.724049620120125192e-01 6.915693592240328424e-01
4.868507385253906250e-04 -5.245208740234375000e-04 -3.632812500000000000e-01 5.713713298524896178e-01 4.959669548477114165e-01 6.538742869402999203e-01
2.204895019531250000e-03 -5.273818969726562500e-04 -3.652343750000000000e-01 6.697439700151099906e-01 4.241588947937541265e-01 6.095344507045853399e-01
3.940582275390625000e-03 -5.302429199218750000e-04 -3.674316406250000000e-01 7.223761690137835423e-01 3.565935103353392588e-01 5.924641245068684725e-01
5.699157714843750000e-03 -5.331039428710937500e-04 -3.693847656250000000e-01 7.818998436264450458e-01 2.888679913534270005e-01 5.524381577229954265e-01
7.492065429687500000e-03 -5.373954772949218750e-04 -3.723144531250000000e-01 7.760519334395546975e-01 3.024387919392043655e-01 5.534204312591680663e-01
9.315490722656250000e-03 -5.416870117187500000e-04 -3.752441406250000000e-01 8.030180409092462224e-01 3.148246130286045941e-01 5.060113526450421562e-01
-1.684570312500000000e-02 -2.267837524414062500e-03 -3.693847656250000000e-01 7.960662449601098034e-01 -3.634027162948910705e-01 -4.839597084723116227e-01
-1.486968994140625000e-02 -2.229690551757812500e-03 -3.632812500000000000e-01 5.165692541273558813e-01 -6.563226027888569014e-01 -5.499062163303556350e-01
-1.305389404296875000e-02 -2.212524414062500000e-03 -3.603515625000000000e-01 2.821448083744793056e-01 -7.306403834830252908e-01 -6.217386405324235588e-01
-1.132965087890625000e-02 -2.204895019531250000e-03 -3.593750000000000000e-01 2.486636280200330840e-01 -7.258765351850632319e-01 -6.413030919679418851e-01
-9.613037109375000000e-03 -2.199172973632812500e-03 -3.583984375000000000e-01 1.093278312936912799e-01 -7.227755456391938838e-01 -6.823803455043114807e-01
-7.934570312500000000e-03 -2.199172973632812500e-03 -3.583984375000000000e-01 5.611038817995598477e-02 -7.367826000655226526e-01 -6.737974655480554187e-01
-6.248474121093750000e-03 -2.199172973632812500e-03 -3.583984375000000000e-01 -7.056330044459743767e-02 -7.348593881711619202e-01 -6.745387314654889277e-01
-4.566192626953125000e-03 -2.199172973632812500e-03 -3.583984375000000000e-01 -2.245880274820604705e-01 -7.106080497018403275e-01 -6.667806367994378869e-01
-2.893447875976562500e-03 -2.204895019531250000e-03 -3.593750000000000000e-01 3.826971157196474294e-01 6.511702513898165456e-01 6.553779225185922819e-01
-1.209259033203125000e-03 -2.212524414062500000e-03 -3.603515625000000000e-01 4.561250084205738520e-01 6.098713466368124170e-01 6.480794065889859956e-01
4.842281341552734375e-04 -2.218246459960937500e-03 -3.613281250000000000e-01 5.700676599453028404e-01 5.449501062405056606e-01 6.148595325706093240e-01
2.193450927734375000e-03 -2.229690551757812500e-03 -3.632812500000000000e-01 6.661447942085552132e-01 4.693569659670863148e-01 5.796163831768499364e-01
3.929138183593750000e-03 -2.248764038085937500e-03 -3.662109375000000000e-01 7.400670396855764110e-01 3.991294048014911167e-01 5.412915064859551428e-01
5.683898925781250000e-03 -2.262115478515625000e-03 -3.684082031250000000e-01 7.559467087094366988e-01 3.653867889770459065e-01 5.431731473779000119e-01
7.472991943359375000e-03 -2.279281616210937500e-03 -3.713378906250000000e-01 7.620882585950662369e-01 3.309512699279665293e-01 5.565004429868908309e-01
9.292602539062500000e-03 -2.298355102539062500e-03 -3.742675781250000000e-01 7.827870518010060508e-01 3.274770192522045154e-01 5.291533174746048118e-01
-1.462554931640625000e-02 -3.871917724609375000e-03 -3.571777343750000000e-01 3.379667154926194739e-01 -7.041037062070899522e-01 -6.245129863538231296e-01
-1.294708251953125000e-02 -3.871917724609375000e-03 -3.571777343750000000e-01 2.165408507069014887e-01 -7.316535525998999479e-01 -6.463691970871418002e-01
-1.126861572265625000e-02 -3.871917724609375000e-03 -3.571777343750000000e-01 1.355752855120620770e-01 -7.275255386014086723e-01 -6.725518066595711497e-01
-9.559631347656250000e-03 -3.860473632812500000e-03 -3.562011718750000000e-01 1.168389346152724773e-01 -7.433868881617122781e-01 -6.585777082981277841e-01
-7.888793945312500000e-03 -3.860473632812500000e-03 -3.562011718750000000e-01 3.739994422806822150e-02 -7.455557192373688524e-01 -6.653930520257833603e-01
-6.214141845703125000e-03 -3.860473632812500000e-03 -3.562011718750000000e-01 -6.352778351531851442e-02 -7.445641370251108171e-01 -6.645212310962552715e-01
-4.543304443359375000e-03 -3.860473632812500000e-03 -3.562011718750000000e-01 -2.166475891396147935e-01 -7.266631978063889941e-01 -6.519389688259058513e-01
-2.876281738281250000e-03 -3.871917724609375000e-03 -3.571777343750000000e-01 -3.461483752150326110e-01 -6.986938757870546635e-01 -6.261055584114048056e-01
-1.202583312988281250e-03 -3.883361816406250000e-03 -3.583984375000000000e-01 -4.408025732382943040e-01 -6.636791385610261162e-01 -6.043369031139771419e-01
4.827976226806640625e-04 -3.904342651367187500e-03 -3.603515625000000000e-01 -5.746851656702911537e-01 -5.810178464000670395e-01 -5.763290922061267141e-01
2.185821533203125000e-03 -3.925323486328125000e-03 -3.623046875000000000e-01 6.706654646314117452e-01 5.075450669777875623e-01 5.409305311564932550e-01
3.910064697265625000e-03 -3.948211669921875000e-03 -3.642578125000000000e-01 7.285254022956870745e-01 4.521642999249387840e-01 5.145854487675466382e-01
5.668640136718750000e-03 -3.978729248046875000e-03 -3.674316406250000000e-01 7.496999137276969538e-01 4.085332929369194233e-01 5.206251894778055611e-01
