-2.709960937500000000e-02 -2.644348144531250000e-02 -3.452148437500000000e-01 -5.609628415831422465e-01 -2.429686840681793136e-01 7.913829091692237139e-01
-2.540588378906250000e-02 -2.636718750000000000e-02 -3.442382812500000000e-01 -5.363240622536571411e-01 -2.132924253160523309e-01 8.166167041828935602e-01
-2.371215820312500000e-02 -2.629089355468750000e-02 -3.432617187500000000e-01 -5.432867369481282349e-01 -1.704850734915512034e-01 8.220549623795452288e-01
-2.204895019531250000e-02 -2.621459960937500000e-02 -3.422851562500000000e-01 -5.671194336212195264e-01 -1.054322980239528612e-01 8.168595831246245886e-01
-2.030944824218750000e-02 -2.606201171875000000e-02 -3.400878906250000000e-01 -5.677512431479734278e-01 -2.966203622682749355e-02 8.226656000531499258e-01
-1.866149902343750000e-02 -2.598571777343750000e-02 -3.391113281250000000e-01 -5.412155800236020387e-01 8.301543727292849673e-02 8.367760352173695404e-01
-1.701354980468750000e-02 -2.590942382812500000e-02 -3.381347656250000000e-01 -4.708134410672496495e-01 1.647535428531220481e-01 8.667127400862180142e-01
-1.538848876953125000e-02 -2.581787109375000000e-02 -3.371582031250000000e-01 -4.366427992778499356e-01 2.420293796608856407e-01 8.664668748542959653e-01
-1.380157470703125000e-02 -2.581787109375000000e-02 -3.371582031250000000e-01 -3.862543540335361958e-01 2.777294840718912416e-01 8.795873507885938469e-01
-1.218414306640625000e-02 -2.574157714843750000e-02 -3.361816406250000000e-01 -3.372966056438077564e-01 3.536122958156446283e-01 8.724616576498676057e-01
-1.056671142578125000e-02 -2.566528320312500000e-02 -3.352050781250000000e-01 -2.998347561646205750e-01 4.000440324856968100e-01 8.660622905243510194e-01
-8.995056152343750000e-03 -2.566528320312500000e-02 -3.352050781250000000e-01 -2.778496013963709377e-01 4.347109402611573081e-01 8.566364441355143189e-01
-7.423400878906250000e-03 -2.566528320312500000e-02 -3.352050781250000000e-01 -1.961192409986695639e-01 4.692768786677634085e-01 8.609973603083501681e-01
-5.828857421875000000e-03 -2.558898925781250000e-02 -3.342285156250000000e-01 -1.315432846370731268e-01 5.034783203084053360e-01 8.539355627014937333e-01
-4.261016845703125000e-03 -2.558898925781250000e-02 -3.342285156250000000e-01 -7.265751139661845437e-02 5.226512080038420160e-01 8.494448780290425605e-01
-2.691268920898437500e-03 -2.558898925781250000e-02 -3.342285156250000000e-01 -3.593862315593076423e-02 5.435866640863773469e-01 8.385833017614290341e-01
-1.121520996093750000e-03 -2.558898925781250000e-02 -3.342285156250000000e-01 1.285296218505202308e-02 5.641698670854236042e-01 8.255586971475045166e-01
4.477500915527343750e-04 -2.558898925781250000e-02 -3.342285156250000000e-01 6.495373317170242793e-03 5.492404469942928635e-01 8.356391215775982317e-01
2.016067504882812500e-03 -2.558898925781250000e-02 -3.342285156250000000e-01 -1.756191409798770614e-02 5.558809195333885844e-01 8.310763999007126923e-01
3.587722778320312500e-03 -2.558898925781250000e-02 -3.342285156250000000e-01 4.901118605363571912e-02 -5.698689692822045405e-01 -8.202726750848488013e-01
5.157470703125000000e-03 -2.558898925781250000e-02 -3.342285156250000000e-01 1.030612518645845077e-01 -5.697110782451235700e-01 -8.153573852543947176e-01
-3.427124023437500000e-02 -2.864074707031250000e-02 -3.522949218750000000e-01 7.039441236682463243e-01 2.268345735963102072e-01 -6.730592447729433214e-01
-3.240966796875000000e-02 -2.847290039062500000e-02 -3.503417968750000000e-01 6.765368306525378905e-01 2.598925325734441349e-01 -6.890237936988685696e-01
-3.070068359375000000e-02 -2.838134765625000000e-02 -3.491210937500000000e-01 -6.206626549077193244e-01 -2.688040794181585924e-01 7.365610875487909048e-01
-2.888488769531250000e-02 -2.822875976562500000e-02 -3.471679687500000000e-01 -5.820172550874231909e-01 -2.831734742305419550e-01 7.622786224686520784e-01
-2.717590332031250000e-02 -2.813720703125000000e-02 -3.461914062500000000e-01 -5.643515658008609881e-01 -2.797669116257338606e-01 7.766838387255879939e-01
-2.548217773437500000e-02 -2.806091308593750000e-02 -3.452148437500000000e-01 -5.592280151396403776e-01 -2.702048343443777534e-01 7.837431815205192498e-01
-2.371215820312500000e-02 -2.789306640625000000e-02 -3.432617187500000000e-01 -5.750433569017084912e-01 -2.340837317786902128e-01 7.839196031480374360e-01
-2.204895019531250000e-02 -2.781677246093750000e-02 -3.422851562500000000e-01 -5.853744466071377772e-01 -1.915271336740378139e-01 7.878160409169100431e-01
-2.037048339843750000e-02 -2.774047851562500000e-02 -3.413085937500000000e-01 -6.140093116796299100e-01 -1.004759852595552561e-01 7.828774754435261496e-01
-1.866149902343750000e-02 -2.757263183593750000e-02 -3.391113281250000000e-01 -5.861980336335487207e-01 -1.579232300246143431e-02 8.100138689543203707e-01
-1.701354980468750000e-02 -2.749633789062500000e-02 -3.381347656250000000e-01 -5.387088299806936931e-01 6.220489084914673783e-02 8.401924470353667740e-01
-1.538848876953125000e-02 -2.740478515625000000e-02 -3.371582031250000000e-01 -4.942971668131044827e-01 1.641206596169131338e-01 8.536596042729486244e-01
-1.376342773437500000e-02 -2.732849121093750000e-02 -3.361816406250000000e-01 -4.611911256069802789e-01 1.981094734308515570e-01 8.649019494707578248e-01
-1.214599609375000000e-02 -2.725219726562500000e-02 -3.352050781250000000e-01 -4.026192439167352588e-01 2.907371739232170738e-01 8.679686861442971191e-01
-1.056671142578125000e-02 -2.725219726562500000e-02 -3.352050781250000000e-01 -3.448001021683305689e-01 3.337070562904042581e-01 8.773553955648200064e-01
-8.964538574218750000e-03 -2.716064453125000000e-02 -3.342285156250000000e-01 -2.853082695884089914e-01 3.773185804682928080e-01 8.810390911519534463e-01
-7.400512695312500000e-03 -2.716064453125000000e-02 -3.342285156250000000e-01 -2.285460340623423070e-01 4.058154550970650698e-01 8.849183729128560216e-01
-5.813598632812500000e-03 -2.708435058593750000e-02 -3.332519531250000000e-01 -1.709175688580902575e-01 4.856897769674019538e-01 8.572587854347106795e-01
-4.245758056640625000e-03 -2.708435058593750000e-02 -3.332519531250000000e-01 -1.028047384458376096e-01 5.187765918345781380e-01 8.487060937200712196e-01
-2.683639526367187500e-03 -2.708435058593750000e-02 -3.332519531250000000e-01 -5.082338269153170024e-02 5.473632032802586700e-01 8.353505296979012451e-01
-1.118659973144531250e-03 -2.708435058593750000e-02 -3.332519531250000000e-01 -1.103600104360496961e-04 5.671904809638277367e-01 8.235866354699363789e-01
4.465579986572265625e-04 -2.708435058593750000e-02 -3.332519531250000000e-01 7.071121823363399036e-04 5.681019939414403419e-01 8.229578509693685762e-01
2.010345458984375000e-03 -2.708435058593750000e-02 -3.332519531250000000e-01 -5.286693981620604887e-02 5.796428868774478049e-01 8.131538663542392520e-01
3.576278686523437500e-03 -2.708435058593750000e-02 -3.332519531250000000e-01 -1.014727874983641226e-01 6.137167117943473915e-01 7.829783337115056030e-01
5.142211914062500000e-03 -2.708435058593750000e-02 -3.332519531250000000e-01 -1.321519116781617320e-01 6.084808874474312290e-01 7.824876240880709322e-01
6.687164306640625000e-03 -2.700805664062500000e-02 -3.322753906250000000e-01 1.951463054748674153e-01 -6.140724669498420774e-01 -7.647436987603396519e-01
-3.253173828125000000e-02 -3.019714355468750000e-02 -3.513183593750000000e-01 6.684679476543462506e-01 2.936410083397980597e-01 -6.833195161708559562e-01
-3.070068359375000000e-02 -3.002929687500000000e-02 -3.491210937500000000e-01 6.197860123831057111e-01 2.846697052630037250e-01 -7.313196686536769242e-01
-2.897644042968750000e-02 -2.993774414062500000e-02 -3.481445312500000000e-01 -5.930938298994068436e-01 -2.845066142860184777e-01 7.531903447089323134e-01
-2.725219726562500000e-02 -2.986145019531250000e-02 -3.471679687500000000e-01 -5.616557579932512922e-01 -2.845787681258503676e-01 7.768897825592763207e-01
-2.548217773437500000e-02 -2.967834472656250000e-02 -3.452148437500000000e-01 -5.632802560621484878e-01 -2.743222524963793707e-01 7.793989061551684916e-01
-2.378845214843750000e-02 -2.960205078125000000e-02 -3.442382812500000000e-01 -5.744179820289488925e-01 -2.621115676267660732e-01 7.754621254697288135e-01
-2.210998535156250000e-02 -2.951049804687500000e-02 -3.432617187500000000e-01 -6.150550044792990612e-01 -2.398876913219182838e-01 7.511066748586445740e-01
-2.037048339843750000e-02 -2.934265136718750000e-02 -3.413085937500000000e-01 -6.419051289981574371e-01 -1.909196694033118147e-01 7.426354995559995009e-01
-1.872253417968750000e-02 -2.925109863281250000e-02 -3.400878906250000000e-01 -6.426911188359611948e-01 -1.123222930600221436e-01 7.578468369341648803e-01
-1.701354980468750000e-02 -2.908325195312500000e-02 -3.381347656250000000e-01 -6.030112980238763187e-01 -1.469390432059312912e-02 7.975973066851324011e-01
-1.538848876953125000e-02 -2.899169921875000000e-02 -3.371582031250000000e-01 -5.525710045396279302e-01 6.632244218288997628e-02 8.308228563327826333e-01
-1.376342773437500000e-02 -2.890014648437500000e-02 -3.361816406250000000e-01 -5.110204415797634514e-01 1.244378446236001773e-01 8.505135690352366717e-01
-1.214599609375000000e-02 -2.882385253906250000e-02 -3.352050781250000000e-01 -4.539433652962052701e-01 2.034177313467241954e-01 8.675002292087926614e-01
-1.053619384765625000e-02 -2.873229980468750000e-02 -3.342285156250000000e-01 -4.203624111146941900e-01 2.589494341311401882e-01 8.696209713921364548e-01
-8.941650390625000000e-03 -2.865600585937500000e-02 -3.332519531250000000e-01 -3.326847660042912547e-01 3.479273221826656992e-01 8.765086565159920795e-01
-7.377624511718750000e-03 -2.865600585937500000e-02 -3.332519531250000000e-01 -2.843697868785928784e-01 3.908499332680474558e-01 8.754256987174789950e-01
-5.794525146484375000e-03 -2.856445312500000000e-02 -3.322753906250000000e-01 -2.251273237089578272e-01 4.534899532292286373e-01 8.623598729299700727e-01
-4.234313964843750000e-03 -2.856445312500000000e-02 -3.322753906250000000e-01 -1.398195056002994874e-01 4.942125902606493426e-01 8.580235553185863173e-01
-2.674102783203125000e-03 -2.856445312500000000e-02 -3.322753906250000000e-01 -7.312574362966448027e-02 5.404208650326900454e-01 8.382111394248633607e-01
-1.114845275878906250e-03 -2.856445312500000000e-02 -3.322753906250000000e-01 -2.980275022780733141e-02 5.607958752844023342e-01 8.274175380923830536e-01
4.451274871826171875e-04 -2.856445312500000000e-02 -3.322753906250000000e-01 -1.138006267916189147e-02 5.972515673448638429e-01 8.019732286538759913e-01
2.004623413085937500e-03 -2.856445312500000000e-02 -3.322753906250000000e-01 -6.876507211239936412e-02 6.163029495067694485e-01 7.845011403985547860e-01
3.564834594726562500e-03 -2.856445312500000000e-02 -3.322753906250000000e-01 -1.389197143091384368e-01 6.208361419232413247e-01 7.715334068322201588e-01
5.123138427734375000e-03 -2.856445312500000000e-02 -3.322753906250000000e-01 -1.765891686257670679e-01 6.175531494166395241e-01 7.664491980357536205e-01
6.664276123046875000e-03 -2.847290039062500000e-02 -3.310546875000000000e-01 -2.143283263151173901e-01 6.188640866496351034e-01 7.556921402226395301e-01
8.193969726562500000e-03 -2.839660644531250000e-02 -3.300781250000000000e-01 2.149522001098522761e-01 -6.145827325156330012e-01 -7.590017236881299034e-01
-2.905273437500000000e-02 -3.167724609375000000e-02 -3.491210937500000000e-01 6.084651534566256625e-01 2.918704951621820531e-01 -7.379578382826401661e-01
-2.725219726562500000e-02 -3.149414062500000000e-02 -3.471679687500000000e-01 5.814481437478793424e-01 2.784356599204187988e-01 -7.644551258359292278e-01
-2.555847167968750000e-02 -3.140258789062500000e-02 -3.461914062500000000e-01 -5.654084339206278953e-01 -2.698163044386811538e-01 7.794308594804775225e-01
-2.386474609375000000e-02 -3.131103515625000000e-02 -3.452148437500000000e-01 -5.908015656732398257e-01 -2.505169220459414481e-01 7.669385775710308994e-01
-2.210998535156250000e-02 -3.112792968750000000e-02 -3.432617187500000000e-01 -6.348040553215784643e-01 -2.186519930299027359e-01 7.410904919720194828e-01
-2.043151855468750000e-02 -3.103637695312500000e-02 -3.422851562500000000e-01 -6.578321205527601911e-01 -2.049677522006741470e-01 7.247379676316548780e-01
-1.872253417968750000e-02 -3.085327148437500000e-02 -3.400878906250000000e-01 -6.763177526273026485e-01 -1.561459428098360691e-01 7.198699479942067825e-01
-1.701354980468750000e-02 -3.067016601562500000e-02 -3.381347656250000000e-01 -6.365413879201821112e-01 -8.412215536985385989e-02 7.666410662367221240e-01
-1.538848876953125000e-02 -3.057861328125000000e-02 -3.371582031250000000e-01 -5.953294998796820892e-01 -2.687083630056727804e-02 8.030322189859604443e-01
-1.376342773437500000e-02 -3.048706054687500000e-02 -3.361816406250000000e-01 -5.736585293105080918e-01 3.504189844727487874e-02 8.183446444515390938e-01
-1.210784912109375000e-02 -3.030395507812500000e-02 -3.342285156250000000e-01 -5.105375193489932739e-01 1.085770371026807402e-01 8.529727242714034707e-01
-1.053619384765625000e-02 -3.030395507812500000e-02 -3.342285156250000000e-01 -4.714057913498064800e-01 1.577108799468865674e-01 8.677003274335221006e-01
-8.941650390625000000e-03 -3.021240234375000000e-02 -3.332519531250000000e-01 -4.114438305087679271e-01 2.645620043998081483e-01 8.721931667722627735e-01
-7.354736328125000000e-03 -3.012084960937500000e-02 -3.322753906250000000e-01 -3.364286685046349312e-01 3.363281756296025438e-01 8.796016764910477015e-01
-5.794525146484375000e-03 -3.012084960937500000e-02 -3.322753906250000000e-01 -2.744346929987052652e-01 3.928675553994133707e-01 8.776905395372535112e-01
-4.222869873046875000e-03 -3.002929687500000000e-02 -3.310546875000000000e-01 -1.879329077521181834e-01 4.608004038479280862e-01 8.673777781321240221e-01
-2.666473388671875000e-03 -3.002929687500000000e-02 -3.310546875000000000e-01 -1.265649336524160562e-01 4.921748405531146675e-01 8.612463317170504506e-01
-1.111984252929687500e-03 -3.002929687500000000e-02 -3.310546875000000000e-01 -7.129790048974120331e-02 5.772493684859779650e-01 8.134493075590480959e-01
4.436969757080078125e-04 -3.002929687500000000e-02 -3.310546875000000000e-01 -6.486908938656833767e-02 6.201610897577843895e-01 7.817878382224905387e-01
1.998901367187500000e-03 -3.002929687500000000e-02 -3.310546875000000000e-01 -8.792934442697046549e-02 6.384082979901333221e-01 7.646589275265046615e-01
3.555297851562500000e-03 -3.002929687500000000e-02 -3.310546875000000000e-01 -1.491704779447346751e-01 6.332151921334298050e-01 7.594647384580557326e-01
5.092620849609375000e-03 -2.993774414062500000e-02 -3.300781250000000000e-01 -1.875415407273394452e-01 6.339194735579453122e-01 7.503161144115414460e-01
6.645202636718750000e-03 -2.993774414062500000e-02 -3.300781250000000000e-01 -2.112457206388962117e-01 6.202657242701090645e-01 7.554109324119094859e-01
8.171081542968750000e-03 -2.984619140625000000e-02 -3.291015625000000000e-01 2.144730698028183558e-01 -5.959509725687063275e-01 -7.738499470981234918e-01
9.712219238281250000e-03 -2.984619140625000000e-02 -3.291015625000000000e-01 2.056028911750985289e-01 -5.670279216662860167e-01 -7.976257187373365642e-01
1.123046875000000000e-02 -2.975463867187500000e-02 -3.281250000000000000e-01 1.943607887780279264e-01 -5.359978543837298215e-01 -8.215413464224552431e-01
-2.734375000000000000e-02 -3.320312500000000000e-02 -3.481445312500000000e-01 5.823092303727851471e-01 2.785157264788133413e-01 -7.637702208954163519e-01
-2.563476562500000000e-02 -3.311157226562500000e-02 -3.471679687500000000e-01 5.874558961290680115e-01 2.596699229018473165e-01 -7.664640247548097918e-01
-2.386474609375000000e-02 -3.292846679687500000e-02 -3.452148437500000000e-01 -6.081827058081987758e-01 -2.270623615892132241e-01 7.606290030661118085e-01
-2.217102050781250000e-02 -3.283691406250000000e-02 -3.442382812500000000e-01 -6.338657866206884872e-01 -2.109062657284350994e-01 7.441321869320145499e-01
-2.043151855468750000e-02 -3.262329101562500000e-02 -3.422851562500000000e-01 -6.737785181688784597e-01 -1.990818470667734263e-01 7.116100945199079764e-01
-1.872253417968750000e-02 -3.244018554687500000e-02 -3.400878906250000000e-01 -6.938270643951586214e-01 -1.607783014844154090e-01 7.019646305082491988e-01
-1.705932617187500000e-02 -3.234863281250000000e-02 -3.391113281250000000e-01 -6.718618515120519108e-01 -1.319664100224805792e-01 7.288254380224223894e-01
-1.538848876953125000e-02 -3.216552734375000000e-02 -3.371582031250000000e-01 -6.437753902584255616e-01 -9.039381280371665273e-02 7.598567006379680633e-01
-1.376342773437500000e-02 -3.204345703125000000e-02 -3.361816406250000000e-01 -6.055961682786481504e-01 -5.003883513439909281e-02 7.941973280895698872e-01
-1.210784912109375000e-02 -3.186035156250000000e-02 -3.342285156250000000e-01 -5.519188754814755571e-01 3.343686528847673867e-02 8.332271784615187249e-01
-1.050567626953125000e-02 -3.176879882812500000e-02 -3.332519531250000000e-01 -5.260328348536932319e-01 9.822350746422922607e-02 8.447731051810370984e-01
-8.941650390625000000e-03 -3.176879882812500000e-02 -3.332519531250000000e-01 -4.847027433195520985e-01 1.423920433736289293e-01 8.630108670245021374e-01
-7.354736328125000000e-03 -3.167724609375000000e-02 -3.322753906250000000e-01 -4.317045784768430705e-01 2.365419843595265026e-01 8.704476127587397194e-01
-5.779266357421875000e-03 -3.158569335937500000e-02 -3.310546875000000000e-01 -3.417673850718672135e-01 3.180984312371790690e-01 8.843124122987212621e-01
-4.222869873046875000e-03 -3.158569335937500000e-02 -3.310546875000000000e-01 -2.583382563894219275e-01 4.065643115023820364e-01 8.763371530970642809e-01
-2.658843994140625000e-03 -3.149414062500000000e-02 -3.300781250000000000e-01 -1.800461297877569145e-01 4.674847007582068059e-01 8.654718052631523717e-01
-1.108169555664062500e-03 -3.149414062500000000e-02 -3.300781250000000000e-01 -1.506044099026643546e-01 5.197073761148012228e-01 8.409652519157605477e-01
4.425048828125000000e-04 -3.149414062500000000e-02 -3.300781250000000000e-01 -1.236238707639354811e-01 5.861147967889778210e-01 8.007412712995108928e-01
1.993179321289062500e-03 -3.149414062500000000e-02 -3.300781250000000000e-01 -1.031845782034074427e-01 6.209979497791241476e-01 7.769906622290319032e-01
3.532409667968750000e-03 -3.140258789062500000e-02 -3.291015625000000000e-01 -1.761512338422527857e-01 6.082648743120360191e-01 7.739409444486154976e-01
5.077362060546875000e-03 -3.140258789062500000e-02 -3.291015625000000000e-01 -2.037824617234859914e-01 6.036472369092428236e-01 7.707676184595149138e-01
6.626129150390625000e-03 -3.140258789062500000e-02 -3.291015625000000000e-01 -1.942488676397213232e-01 5.845102681477197804e-01 7.877912946019186569e-01
8.148193359375000000e-03 -3.128051757812500000e-02 -3.281250000000000000e-01 -2.069560254120937359e-01 5.503778267431224114e-01 8.088593520354118160e-01
9.689331054687500000e-03 -3.128051757812500000e-02 -3.281250000000000000e-01 -1.980164535737645171e-01 5.347701846486121458e-01 8.214684009290671440e-01
1.123046875000000000e-02 -3.128051757812500000e-02 -3.281250000000000000e-01 1.821403340128208703e-01 -5.329866884764213886e-01 -8.262869287557659259e-01
1.273345947265625000e-02 -3.120422363281250000e-02 -3.271484375000000000e-01 1.701391434421742621e-01 -5.106568955585741865e-01 -8.427824196595716799e-01
-2.563476562500000000e-02 -3.472900390625000000e-02 -3.471679687500000000e-01 5.958294880349150890e-01 2.088542458515617872e-01 -7.754786426316502279e-01
-2.392578125000000000e-02 -3.463745117187500000e-02 -3.461914062500000000e-01 6.151387051130002837e-01 1.910850851618475787e-01 -7.649123241918585059e-01
-2.217102050781250000e-02 -3.445434570312500000e-02 -3.442382812500000000e-01 -6.412875429458330112e-01 -1.869916577729091589e-01 7.441669215880504229e-01
-2.049255371093750000e-02 -3.433227539062500000e-02 -3.432617187500000000e-01 -6.730268607776810352e-01 -1.608136703774195320e-01 7.219236857809020469e-01
-1.876831054687500000e-02 -3.414916992187500000e-02 -3.413085937500000000e-01 7.001015615163588279e-01 1.633589831169192652e-01 -6.951054928551221312e-01
-1.705932617187500000e-02 -3.393554687500000000e-02 -3.391113281250000000e-01 -6.897817679756604869e-01 -1.475250918261424293e-01 7.088282301446947598e-01
-1.538848876953125000e-02 -3.375244140625000000e-02 -3.371582031250000000e-01 -6.554947436945431916e-01 -1.411899125342898631e-01 7.418841214013038865e-01
-1.376342773437500000e-02 -3.363037109375000000e-02 -3.361816406250000000e-01 -6.299829643967266302e-01 -9.978916624748448982e-02 7.701711412858474048e-01
-1.214599609375000000e-02 -3.353881835937500000e-02 -3.352050781250000000e-01 -5.963562736139446097e-01 -6.411738888801170322e-02 8.001550820706405664e-01
-1.050567626953125000e-02 -3.332519531250000000e-02 -3.332519531250000000e-01 -5.722633408448998260e-01 5.530310640108007485e-03 8.200512693662865837e-01
-8.911132812500000000e-03 -3.323364257812500000e-02 -3.322753906250000000e-01 -5.197339080062477468e-01 6.971049416560391732e-02 8.514793666741081735e-01
-7.331848144531250000e-03 -3.314208984375000000e-02 -3.310546875000000000e-01 -4.884793880979635960e-01 1.719511160833611385e-01 8.554651957158313502e-01
-5.779266357421875000e-03 -3.314208984375000000e-02 -3.310546875000000000e-01 -4.215486723187845119e-01 2.520402021448713281e-01 8.710754579076616100e-01
-4.207611083984375000e-03 -3.302001953125000000e-02 -3.300781250000000000e-01 -3.286366555879360885e-01 3.235263196304922761e-01 8.873154281935622389e-01
-2.651214599609375000e-03 -3.292846679687500000e-02 -3.291015625000000000e-01 -2.598859634274395258e-01 3.917952962071697409e-01 8.825846882216616951e-01
-1.104354858398437500e-03 -3.292846679687500000e-02 -3.291015625000000000e-01 -2.164457505970611984e-01 4.494033689237815210e-01 8.667109374228701979e-01
4.410743713378906250e-04 -3.292846679687500000e-02 -3.291015625000000000e-01 -1.894758764001766294e-01 5.114294690633283125e-01 8.381758708266344726e-01
1.979827880859375000e-03 -3.283691406250000000e-02 -3.281250000000000000e-01 -1.604922878154730337e-01 5.394109453409754451e-01 8.266063498413924737e-01
3.522872924804687500e-03 -3.283691406250000000e-02 -3.281250000000000000e-01 -1.704299797155747476e-01 5.645977960918957539e-01 8.075784486118503525e-01
5.062103271484375000e-03 -3.283691406250000000e-02 -3.281250000000000000e-01 -1.966961663661850879e-01 5.727633565338484667e-01 7.957717986639923913e-01
6.603240966796875000e-03 -3.283691406250000000e-02 -3.281250000000000000e-01 -1.718682604751755327e-01 5.652660807437341894e-01 8.068057752655564130e-01
8.117675781250000000e-03 -3.274536132812500000e-02 -3.271484375000000000e-01 -1.779183863032799406e-01 5.328225160482759071e-01 8.273120416186516835e-01
9.658813476562500000e-03 -3.274536132812500000e-02 -3.271484375000000000e-01 -1.895177781411901408e-01 5.302919416891591631e-01 8.263615845064241627e-01
1.119232177734375000e-02 -3.274536132812500000e-02 -3.271484375000000000e-01 -1.718147480801211213e-01 5.226994851048506474e-01 8.350239161923976861e-01
1.268768310546875000e-02 -3.262329101562500000e-02 -3.261718750000000000e-01 -1.350251608531297109e-01 5.301709187815715207e-01 8.370704885580966259e-01
1.422119140625000000e-02 -3.262329101562500000e-02 -3.261718750000000000e-01 1.606422871624736681e-01 -5.218677356359160413e-01 -8.377637626905640733e-01
1.574707031250000000e-02 -3.262329101562500000e-02 -3.261718750000000000e-01 1.655751653143555102e-01 -5.246253733639638650e-01 -8.350766924383923318e-01
-2.392578125000000000e-02 -3.625488281250000000e-02 -3.461914062500000000e-01 6.194025543783618915e-01 1.629939383418175791e-01 -7.679670902411015465e-01
-2.223205566406250000e-02 -3.616333007812500000e-02 -3.452148437500000000e-01 6.435481985163480356e-01 1.699339112132368101e-01 -7.463030095116427454e-01
-2.049255371093750000e-02 -3.594970703125000000e-02 -3.432617187500000000e-01 -6.755472459956017861e-01 -1.592538495712366997e-01 7.199125848493688196e-01
-1.876831054687500000e-02 -3.573608398437500000e-02 -3.413085937500000000e-01 6.996803883278714942e-01 1.659795668104328270e-01 -6.949087260862248927e-01
-1.712036132812500000e-02 -3.564453125000000000e-02 -3.400878906250000000e-01 -6.859050679157293606e-01 -1.743368405824780309e-01 7.064990472911043540e-01
-1.543426513671875000e-02 -3.543090820312500000e-02 -3.381347656250000000e-01 -6.625977648640338780e-01 -1.631924635403858570e-01 7.309804524341304566e-01
-1.376342773437500000e-02 -3.521728515625000000e-02 -3.361816406250000000e-01 -6.477926877771397196e-01 -1.597909474496738980e-01 7.448701140303622958e-01
-1.214599609375000000e-02 -3.512573242187500000e-02 -3.352050781250000000e-01 -5.977144039106747631e-01 -1.330966579342745537e-01 7.905838165586450694e-01
-1.053619384765625000e-02 -3.500366210937500000e-02 -3.342285156250000000e-01 -6.023668172263676457e-01 -1.069071597027945741e-01 7.910278608929378619e-01
-8.911132812500000000e-03 -3.479003906250000000e-02 -3.322753906250000000e-01 -5.833011533959397976e-01 -3.263513360992535695e-02 8.116000939509732115e-01
-7.331848144531250000e-03 -3.469848632812500000e-02 -3.310546875000000000e-01 -5.440195866303609851e-01 5.505243823649450668e-02 8.372645450553535262e-01
-5.760192871093750000e-03 -3.457641601562500000e-02 -3.300781250000000000e-01 -4.970985054695573058e-01 1.535766636636552995e-01 8.539948970795275818e-01
-4.207611083984375000e-03 -3.457641601562500000e-02 -3.300781250000000000e-01 -4.059461432061853281e-01 2.332128282253625728e-01 8.836399185002627998e-01
-2.651214599609375000e-03 -3.448486328125000000e-02 -3.291015625000000000e-01 -3.390345054125720181e-01 3.021005931777729359e-01 8.909494013361760612e-01
-1.101493835449218750e-03 -3.436279296875000000e-02 -3.281250000000000000e-01 -2.840933134975370811e-01 3.754320324063286640e-01 8.822368039643571080e-01
4.396438598632812500e-04 -3.436279296875000000e-02 -3.281250000000000000e-01 -2.495726423082333667e-01 4.342238816741342822e-01 8.655420941786332589e-01
1.979827880859375000e-03 -3.436279296875000000e-02 -3.281250000000000000e-01 -1.967779871767993960e-01 5.061317051663111188e-01 8.397077591567733146e-01
3.511428833007812500e-03 -3.427124023437500000e-02 -3.271484375000000000e-01 -2.014107657579768118e-01 5.197259863772080157e-01 8.302521318979094733e-01
5.046844482421875000e-03 -3.427124023437500000e-02 -3.271484375000000000e-01 -1.984146903994375710e-01 5.404919538640313714e-01 8.176185286806660901e-01
6.584167480468750000e-03 -3.427124023437500000e-02 -3.271484375000000000e-01 -1.657626890323331270e-01 5.576557602252524282e-01 8.133528041461255409e-01
8.094787597656250000e-03 -3.417968750000000000e-02 -3.261718750000000000e-01 -1.506091998076652116e-01 5.512598630265745925e-01 8.206274625853177129e-01
9.628295898437500000e-03 -3.417968750000000000e-02 -3.261718750000000000e-01 -1.750928668969710944e-01 5.409619472504469950e-01 8.226193892614033221e-01
1.116180419921875000e-02 -3.417968750000000000e-02 -3.261718750000000000e-01 -1.575751437502262153e-01 5.267779520418248707e-01 8.352694555140373067e-01
1.268768310546875000e-02 -3.417968750000000000e-02 -3.261718750000000000e-01 -1.379520812432032950e-01 5.231382549501246704e-01 8.410086738484966462e-01
1.418304443359375000e-02 -3.405761718750000000e-02 -3.251953125000000000e-01 -1.574899647611474607e-01 5.492204119971826337e-01 8.207032655260837473e-01
1.570129394531250000e-02 -3.405761718750000000e-02 -3.251953125000000000e-01 1.740597621073571855e-01 -5.424101729429046115e-01 -8.218846655724748596e-01
1.722717285156250000e-02 -3.405761718750000000e-02 -3.251953125000000000e-01 1.507842266181794733e-01 -5.352501283267745436e-01 -8.311265951281598952e-01
-2.049255371093750000e-02 -3.756713867187500000e-02 -3.432617187500000000e-01 6.768710685007881533e-01 1.613410870344240966e-01 -7.182023463211131276e-01
-1.882934570312500000e-02 -3.744506835937500000e-02 -3.422851562500000000e-01 -6.838530201384985796e-01 -1.622142874860570683e-01 7.113589612726088918e-01
-1.712036132812500000e-02 -3.723144531250000000e-02 -3.400878906250000000e-01 -6.844589509137242178e-01 -1.748717164904885768e-01 7.077682016633368711e-01
-1.543426513671875000e-02 -3.701782226562500000e-02 -3.381347656250000000e-01 -6.709872388731429327e-01 -1.792272158973868545e-01 7.194815705430317454e-01
-1.380157470703125000e-02 -3.689575195312500000e-02 -3.371582031250000000e-01 -6.350289036481931992e-01 -1.852155931477405260e-01 7.499556490795334929e-01
-1.214599609375000000e-02 -3.668212890625000000e-02 -3.352050781250000000e-01 -6.133976150076808631e-01 -2.018297723119027165e-01 7.635496767803744422e-01
-1.053619384765625000e-02 -3.659057617187500000e-02 -3.342285156250000000e-01 -6.085078126214100713e-01 -1.823555075090604327e-01 7.723112784750847393e-01
-8.941650390625000000e-03 -3.646850585937500000e-02 -3.332519531250000000e-01 -6.177854465181431554e-01 -1.274067513075377023e-01 7.759566107661161061e-01
-7.331848144531250000e-03 -3.625488281250000000e-02 -3.310546875000000000e-01 -5.960876653536556491e-01 -5.448766525309521602e-02 8.010684050369824005e-01
-5.760192871093750000e-03 -3.613281250000000000e-02 -3.300781250000000000e-01 -5.560869347290443576e-01 2.565274732915459946e-02 8.307281490223634712e-01
-4.196166992187500000e-03 -3.604125976562500000e-02 -3.291015625000000000e-01 -4.818688211873007887e-01 1.283786506876165301e-01 8.667879563164154755e-01
-2.641677856445312500e-03 -3.591918945312500000e-02 -3.281250000000000000e-01 -3.672847659354264716e-01 2.573392140819771301e-01 8.937999941862997400e-01
-1.101493835449218750e-03 -3.591918945312500000e-02 -3.281250000000000000e-01 -3.592281213194072342e-01 2.740312196538166045e-01 8.921110062701675947e-01
4.384517669677734375e-04 -3.579711914062500000e-02 -3.271484375000000000e-01 -3.109652358658142046e-01 3.428968155064160417e-01 8.864098352333854569e-01
1.974105834960937500e-03 -3.579711914062500000e-02 -3.271484375000000000e-01 -2.533922939107678962e-01 4.113382771965035656e-01 8.755530635544892526e-01
3.499984741210937500e-03 -3.570556640625000000e-02 -3.261718750000000000e-01 -2.318553274917228568e-01 4.727623325214103112e-01 8.501405084235320597e-01
5.031585693359375000e-03 -3.570556640625000000e-02 -3.261718750000000000e-01 -2.232562076167521614e-01 5.082571663196902012e-01 8.317639801321433657e-01
6.565093994140625000e-03 -3.570556640625000000e-02 -3.261718750000000000e-01 -1.952934330113681727e-01 5.312282976092507214e-01 8.244131069080666840e-01
8.071899414062500000e-03 -3.558349609375000000e-02 -3.251953125000000000e-01 -1.321469199263727023e-01 5.572492393712376035e-01 8.197624514297723319e-01
9.597778320312500000e-03 -3.558349609375000000e-02 -3.251953125000000000e-01 -1.611117196506965943e-01 5.410400738750424932e-01 8.254202882486496584e-01
1.112365722656250000e-02 -3.558349609375000000e-02 -3.251953125000000000e-01 -1.500161876259342997e-01 5.355836857478329938e-01 8.310506958128048849e-01
1.264953613281250000e-02 -3.558349609375000000e-02 -3.251953125000000000e-01 -1.341345642962916973e-01 5.478104408514788970e-01 8.257794133757225818e-01
1.413726806640625000e-02 -3.549194335937500000e-02 -3.242187500000000000e-01 -1.597332715478448351e-01 5.478896732693391280e-01 8.211590515152586978e-01
1.565551757812500000e-02 -3.549194335937500000e-02 -3.242187500000000000e-01 -1.770338848304585100e-01 5.501924022390504154e-01 8.160559565006917371e-01
1.718139648437500000e-02 -3.549194335937500000e-02 -3.242187500000000000e-01 1.308350805095032654e-01 -5.473460533083087665e-01 -8.266162831906287423e-01
1.864624023437500000e-02 -3.536987304687500000e-02 -3.232421875000000000e-01 1.085604101996580639e-01 -5.588358936877875216e-01 -8.221417646996499462e-01
-2.049255371093750000e-02 -3.918457031250000000e-02 -3.432617187500000000e-01 6.770640939669407832e-01 1.619133392144033734e-01 -7.178915539586512296e-01
-1.882934570312500000e-02 -3.906250000000000000e-02 -3.422851562500000000e-01 6.797839297647669810e-01 1.754103425778815173e-01 -7.121271098268067146e-01
-1.712036132812500000e-02 -3.884887695312500000e-02 -3.400878906250000000e-01 -6.745503273375271780e-01 -1.847866759748678922e-01 7.147277385627298640e-01
-1.548004150390625000e-02 -3.872680664062500000e-02 -3.391113281250000000e-01 -6.624460049756937252e-01 -2.037572434426951073e-01 7.208663372889437815e-01
-1.380157470703125000e-02 -3.848266601562500000e-02 -3.371582031250000000e-01 -6.348074444947519046e-01 -2.049283070146558361e-01 7.449992599983905617e-01
-1.218414306640625000e-02 -3.839111328125000000e-02 -3.361816406250000000e-01 -6.022809339526021821e-01 -2.094316786555687759e-01 7.703220421179001187e-01
-1.053619384765625000e-02 -3.814697265625000000e-02 -3.342285156250000000e-01 -6.168489995524278902e-01 -2.185106350999499736e-01 7.561417949692935681e-01
-8.941650390625000000e-03 -3.802490234375000000e-02 -3.332519531250000000e-01 -6.272432419264601933e-01 -2.109608367696957643e-01 7.497075701945484782e-01
-7.354736328125000000e-03 -3.790283203125000000e-02 -3.322753906250000000e-01 -6.218250823525169890e-01 -1.609116234297419956e-01 7.664470082154997144e-01
-5.760192871093750000e-03 -3.768920898437500000e-02 -3.300781250000000000e-01 -5.972414982308364984e-01 -8.183867922561806341e-02 7.978753181879937317e-01
-4.196166992187500000e-03 -3.756713867187500000e-02 -3.291015625000000000e-01 -5.535602090667711694e-01 1.627117819031200039e-03 8.328075692652867623e-01
-2.641677856445312500e-03 -3.744506835937500000e-02 -3.281250000000000000e-01 -4.748559323076709804e-01 1.051868963229653092e-01 8.737548628729653322e-01
-1.097679138183593750e-03 -3.735351562500000000e-02 -3.271484375000000000e-01 -4.095488512017788629e-01 2.366308250426384652e-01 8.810650322870289264e-01
4.384517669677734375e-04 -3.735351562500000000e-02 -3.271484375000000000e-01 -3.818226054117491719e-01 2.750819251616141159e-01 8.823499489692079312e-01
1.968383789062500000e-03 -3.723144531250000000e-02 -3.261718750000000000e-01 -3.249918393602524991e-01 3.377931849151353250e-01 8.833323658590400695e-01
3.490447998046875000e-03 -3.710937500000000000e-02 -3.251953125000000000e-01 -2.922255861655101428e-01 4.178185923684373249e-01 8.602510277014969731e-01
5.016326904296875000e-03 -3.710937500000000000e-02 -3.251953125000000000e-01 -2.526104553831501343e-01 4.441398287692915336e-01 8.596090799496605150e-01
6.546020507812500000e-03 -3.710937500000000000e-02 -3.251953125000000000e-01 -2.003186159581677173e-01 4.758570547390474359e-01 8.564067465612839047e-01
8.041381835937500000e-03 -3.698730468750000000e-02 -3.242187500000000000e-01 -1.674315154039330011e-01 5.243395134796213775e-01 8.348860774102634386e-01
9.567260742187500000e-03 -3.698730468750000000e-02 -3.242187500000000000e-01 -1.566385979916249671e-01 5.527898720317986347e-01 8.184666804447727761e-01
1.109313964843750000e-02 -3.698730468750000000e-02 -3.242187500000000000e-01 -1.543167005655660673e-01 5.439466742705509894e-01 8.248080816023594108e-01
1.261138916015625000e-02 -3.698730468750000000e-02 -3.242187500000000000e-01 -1.270321379310971888e-01 5.625131649560339842e-01 8.169710981324862509e-01
1.409149169921875000e-02 -3.689575195312500000e-02 -3.232421875000000000e-01 -1.570991965735006046e-01 5.661420103877030652e-01 8.091990277491257766e-01
1.560974121093750000e-02 -3.689575195312500000e-02 -3.232421875000000000e-01 -1.681922015300580386e-01 5.556960413149275579e-01 8.141948741004150225e-01
1.712036132812500000e-02 -3.689575195312500000e-02 -3.232421875000000000e-01 -1.221285095945298660e-01 5.654627341569011811e-01 8.156816311674673914e-01
1.864624023437500000e-02 -3.689575195312500000e-02 -3.232421875000000000e-01 7.370057545734656768e-02 -5.635408794607651428e-01 -8.227939610582004626e-01
2.009582519531250000e-02 -3.677368164062500000e-02 -3.220214843750000000e-01 -6.567217438715156064e-02 5.712627230937241674e-01 8.181357263405668601e-01
-1.882934570312500000e-02 -4.067993164062500000e-02 -3.422851562500000000e-01 6.743270596945754036e-01 1.819331975690294256e-01 -7.156698457990089413e-01
-1.716613769531250000e-02 -4.055786132812500000e-02 -3.413085937500000000e-01 6.724727984968642547e-01 1.835329099662803831e-01 -7.170048857860769065e-01
-1.548004150390625000e-02 -4.031372070312500000e-02 -3.391113281250000000e-01 6.486288932964301424e-01 2.132102969193483966e-01 -7.306311847085442679e-01
-1.383972167968750000e-02 -4.019165039062500000e-02 -3.381347656250000000e-01 -6.327172170764099324e-01 -2.178231156645624722e-01 7.431164198813439148e-01
-1.218414306640625000e-02 -3.994750976562500000e-02 -3.361816406250000000e-01 -6.085660556620438033e-01 -2.170356502122095244e-01 7.632449688225303452e-01
-1.056671142578125000e-02 -3.982543945312500000e-02 -3.352050781250000000e-01 -5.996680531831570793e-01 -2.140944700263608114e-01 7.710783253961001060e-01
-8.964538574218750000e-03 -3.970336914062500000e-02 -3.342285156250000000e-01 -6.250275023368002669e-01 -2.202156961120645684e-01 7.488963002368886901e-01
-7.354736328125000000e-03 -3.948974609375000000e-02 -3.322753906250000000e-01 -6.488781442774791408e-01 -2.163255783488204909e-01 7.294932474197847183e-01
-5.779266357421875000e-03 -3.936767578125000000e-02 -3.310546875000000000e-01 -6.403284761922937163e-01 -1.699486199689674015e-01 7.490640220621321843e-01
-4.196166992187500000e-03 -3.912353515625000000e-02 -3.291015625000000000e-01 -5.936436026711872094e-01 -8.725762888897564684e-02 7.999833618321366968e-01
-2.641677856445312500e-03 -3.900146484375000000e-02 -3.281250000000000000e-01 -5.463544199135769164e-01 -2.473380833243217763e-03 8.375504344385193978e-01
-1.097679138183593750e-03 -3.887939453125000000e-02 -3.271484375000000000e-01 -5.002510922837413165e-01 6.767270075788911488e-02 8.632318635459751421e-01
4.370212554931640625e-04 -3.875732421875000000e-02 -3.261718750000000000e-01 -4.473807480977439188e-01 1.605110504352781908e-01 8.798219529652954174e-01
1.962661743164062500e-03 -3.863525390625000000e-02 -3.251953125000000000e-01 -3.913870255212597016e-01 2.630493083723167147e-01 8.818283606340105996e-01
3.490447998046875000e-03 -3.863525390625000000e-02 -3.251953125000000000e-01 -3.594536182512542699e-01 3.069685098745775775e-01 8.812283644274411243e-01
5.001068115234375000e-03 -3.851318359375000000e-02 -3.242187500000000000e-01 -3.051115788853771549e-01 3.612613333161935336e-01 8.811340269679059922e-01
6.523132324218750000e-03 -3.851318359375000000e-02 -3.242187500000000000e-01 -2.447124673559465946e-01 4.245098229551230173e-01 8.717265732643320053e-01
8.018493652343750000e-03 -3.839111328125000000e-02 -3.232421875000000000e-01 -2.142107647948880700e-01 4.825542651380038683e-01 8.492674075007883294e-01
9.536743164062500000e-03 -3.839111328125000000e-02 -3.232421875000000000e-01 -1.885302996713132950e-01 5.035397191727533084e-01 8.431512778388404739e-01
1.105499267578125000e-02 -3.839111328125000000e-02 -3.232421875000000000e-01 -1.635628167433247071e-01 5.191503604299473329e-01 8.388862308110948129e-01
1.257324218750000000e-02 -3.839111328125000000e-02 -3.232421875000000000e-01 -1.560338077361992370e-01 5.448000537827751844e-01 8.239213264879287069e-01
1.404571533203125000e-02 -3.829956054687500000e-02 -3.220214843750000000e-01 -1.476502412477387338e-01 5.673976543099072956e-01 8.100983323912595013e-01
1.556396484375000000e-02 -3.829956054687500000e-02 -3.220214843750000000e-01 -1.483533241616425968e-01 5.451793553405158699e-01 8.250883357075715629e-01
1.707458496093750000e-02 -3.829956054687500000e-02 -3.220214843750000000e-01 -1.342872976289243014e-01 5.582096754141987471e-01 8.187605754855906692e-01
1.858520507812500000e-02 -3.829956054687500000e-02 -3.220214843750000000e-01 -6.750572074288653523e-02 5.677650618103705638e-01 8.204180716283920871e-01
2.009582519531250000e-02 -3.829956054687500000e-02 -3.220214843750000000e-01 8.042088498414340370e-02 -5.720987413481626316e-01 -8.162325106280778897e-01
2.160644531250000000e-02 -3.829956054687500000e-02 -3.220214843750000000e-01 1.030164717951521924e-01 -5.541394995674607804e-01 -8.260248310783414594e-01
-1.552581787109375000e-02 -4.202270507812500000e-02 -3.400878906250000000e-01 6.457027572441716989e-01 2.013765368906207665e-01 -7.365564741940802129e-01
-1.383972167968750000e-02 -4.177856445312500000e-02 -3.381347656250000000e-01 6.264642811040419534e-01 2.232509046886661519e-01 -7.467941738233417892e-01
-1.221466064453125000e-02 -4.165649414062500000e-02 -3.371582031250000000e-01 -6.128308545173455357e-01 -2.206488335328806172e-01 7.587835238143479932e-01
-1.060485839843750000e-02 -4.153442382812500000e-02 -3.361816406250000000e-01 -6.123007990152276037e-01 -2.183990466936927277e-01 7.598615583963964637e-01
-8.964538574218750000e-03 -4.129028320312500000e-02 -3.342285156250000000e-01 -6.125641138558313159e-01 -2.122654367562751554e-01 7.613859670198077634e-01
-7.377624511718750000e-03 -4.116821289062500000e-02 -3.332519531250000000e-01 -6.459695620833630914e-01 -2.180132343489724067e-01 7.315692410910454857e-01
-5.779266357421875000e-03 -4.092407226562500000e-02 -3.310546875000000000e-01 -6.609379382382036816e-01 -2.112874802230642057e-01 7.200823859104044100e-01
-4.207611083984375000e-03 -4.080200195312500000e-02 -3.300781250000000000e-01 -6.384305481721691544e-01 -1.789684921453711386e-01 7.485831376539253679e-01
-2.641677856445312500e-03 -4.055786132812500000e-02 -3.281250000000000000e-01 -5.864485369382163027e-01 -1.167923755284299425e-01 8.015220861220555548e-01
-1.097679138183593750e-03 -4.040527343750000000e-02 -3.271484375000000000e-01 -5.463932634290917800e-01 -3.687275054478687808e-02 8.367166796153696628e-01
4.370212554931640625e-04 -4.028320312500000000e-02 -3.261718750000000000e-01 -5.246478040593938186e-01 3.381536757163240009e-02 8.506475196058889132e-01
1.962661743164062500e-03 -4.016113281250000000e-02 -3.251953125000000000e-01 -4.651439915311937900e-01 1.366997136883867925e-01 8.746166333999954023e-01
3.479003906250000000e-03 -4.003906250000000000e-02 -3.242187500000000000e-01 -3.901681631855413168e-01 2.515501901465045931e-01 8.857151383338088824e-01
5.001068115234375000e-03 -4.003906250000000000e-02 -3.242187500000000000e-01 -3.717749905279523759e-01 2.702854459803572529e-01 8.881042360608017994e-01
6.504058837890625000e-03 -3.991699218750000000e-02 -3.232421875000000000e-01 -3.197398094345105246e-01 3.328239618855946547e-01 8.871271975638888030e-01
8.018493652343750000e-03 -3.991699218750000000e-02 -3.232421875000000000e-01 -2.474179865310941751e-01 4.275556193501131585e-01 8.694714097099688344e-01
9.506225585937500000e-03 -3.979492187500000000e-02 -3.220214843750000000e-01 -2.149194236169977013e-01 4.538521736604347323e-01 8.647704006358196693e-01
1.102447509765625000e-02 -3.979492187500000000e-02 -3.220214843750000000e-01 -2.008928342803254219e-01 4.649835003252363319e-01 8.622252684537311529e-01
1.253509521484375000e-02 -3.979492187500000000e-02 -3.220214843750000000e-01 -1.914023876930478485e-01 5.275876298493261674e-01 8.276571867720178277e-01
1.404571533203125000e-02 -3.979492187500000000e-02 -3.220214843750000000e-01 -1.783618809273950778e-01 5.504438854640857359e-01 8.155970625175412714e-01
1.551055908203125000e-02 -3.967285156250000000e-02 -3.210449218750000000e-01 -1.200047764043846860e-01 5.583170599708210391e-01 8.209024998047407262e-01
1.701354980468750000e-02 -3.967285156250000000e-02 -3.210449218750000000e-01 -1.096507667199310698e-01 5.557242790835847934e-01 8.241038981795688612e-01
1.852416992187500000e-02 -3.967285156250000000e-02 -3.210449218750000000e-01 -8.636294817635108145e-02 5.553913229137860119e-01 8.270924492548361595e-01
2.003479003906250000e-02 -3.967285156250000000e-02 -3.210449218750000000e-01 -8.509716991950849740e-02 5.589028661236459250e-01 8.248551739005243189e-01
2.148437500000000000e-02 -3.955078125000000000e-02 -3.200683593750000000e-01 9.998251358617266105e-02 -5.456276475849247687e-01 -8.320420465144362510e-01
2.305603027343750000e-02 -3.967285156250000000e-02 -3.210449218750000000e-01 1.021509473468735774e-01 -5.335671821375902457e-01 -8.395661058558090417e-01
-1.388549804687500000e-02 -4.348754882812500000e-02 -3.391113281250000000e-01 6.357515760964678186e-01 1.783153977471668983e-01 -7.510150147747557403e-01
-1.221466064453125000e-02 -4.324340820312500000e-02 -3.371582031250000000e-01 6.170756858038242143e-01 1.719703750939461373e-01 -7.678826655679812374e-01
-1.060485839843750000e-02 -4.312133789062500000e-02 -3.361816406250000000e-01 -6.163751963158228264e-01 -1.757147286430382482e-01 7.675975192146822224e-01
-8.995056152343750000e-03 -4.299926757812500000e-02 -3.352050781250000000e-01 -6.172661942853553407e-01 -1.800577111946833897e-01 7.658731396463817065e-01
-7.377624511718750000e-03 -4.272460937500000000e-02 -3.332519531250000000e-01 -6.326520543345970360e-01 -1.912204897420649863e-01 7.504572622401749493e-01
-5.794525146484375000e-03 -4.260253906250000000e-02 -3.322753906250000000e-01 -6.597344092742803978e-01 -2.101768224975461841e-01 7.215096759603096821e-01
-4.207611083984375000e-03 -4.232788085937500000e-02 -3.300781250000000000e-01 -6.486273127403423544e-01 -2.130574879455267856e-01 7.306771626358552485e-01
-2.651214599609375000e-03 -4.220581054687500000e-02 -3.291015625000000000e-01 -6.210729948627017327e-01 -1.833193791762123825e-01 7.620120342033466221e-01
-1.097679138183593750e-03 -4.196166992187500000e-02 -3.271484375000000000e-01 -6.009423070658342914e-01 -1.368052861199046677e-01 7.874977188970413433e-01
4.370212554931640625e-04 -4.183959960937500000e-02 -3.261718750000000000e-01 -5.537989491343947579e-01 -5.479962303358734688e-02 8.308451872960550544e-01
1.962661743164062500e-03 -4.168701171875000000e-02 -3.251953125000000000e-01 -5.384796794409461018e-01 -3.727318281687478762e-03 8.426302522029476272e-01
3.479003906250000000e-03 -4.156494140625000000e-02 -3.242187500000000000e-01 -4.855974206265363802e-01 1.020240888122802558e-01 8.682086329810817515e-01
4.985809326171875000e-03 -4.144287109375000000e-02 -3.232421875000000000e-01 -4.130305154121096667e-01 2.052492439839880556e-01 8.872871807833179192e-01
6.504058837890625000e-03 -4.144287109375000000e-02 -3.232421875000000000e-01 -4.051086509685254966e-01 2.690744279065103162e-01 8.737768211375520622e-01
7.995605468750000000e-03 -4.132080078125000000e-02 -3.220214843750000000e-01 -3.231209304624225731e-01 3.241830048653461804e-01 8.890996815057202740e-01
9.506225585937500000e-03 -4.132080078125000000e-02 -3.220214843750000000e-01 -2.467570946058128267e-01 4.039650203196896716e-01 8.808650286052969181e-01
1.098632812500000000e-02 -4.116821289062500000e-02 -3.210449218750000000e-01 -2.444965642502562320e-01 4.463639599783894574e-01 8.608023264967579191e-01
1.249694824218750000e-02 -4.116821289062500000e-02 -3.210449218750000000e-01 -2.349573771524547938e-01 4.686416054989052116e-01 8.515691848094595340e-01
1.400756835937500000e-02 -4.116821289062500000e-02 -3.210449218750000000e-01 -1.907863069915266552e-01 5.115974461393357764e-01 8.377760071571901390e-01
1.546478271484375000e-02 -4.104614257812500000e-02 -3.200683593750000000e-01 -1.478748309601811695e-01 5.325453783241483885e-01 8.333837377787541856e-01
1.696777343750000000e-02 -4.104614257812500000e-02 -3.200683593750000000e-01 -1.152181957290610015e-01 5.413474603677930208e-01 8.328671529879664304e-01
1.846313476562500000e-02 -4.104614257812500000e-02 -3.200683593750000000e-01 -9.845174854620629412e-02 5.664134356583085950e-01 8.182194529060928812e-01
1.997375488281250000e-02 -4.104614257812500000e-02 -3.200683593750000000e-01 -7.964836166011633745e-02 5.639118201309544220e-01 8.219851565578623065e-01
2.148437500000000000e-02 -4.104614257812500000e-02 -3.200683593750000000e-01 -9.719575820171458269e-02 5.453230814365854773e-01 8.325717515266183311e-01
2.290344238281250000e-02 -4.092407226562500000e-02 -3.190917968750000000e-01 -7.243985787712130253e-02 5.447345966129830686e-01 8.354739291226465081e-01
2.441406250000000000e-02 -4.092407226562500000e-02 -3.190917968750000000e-01 7.345518603890358045e-02 -5.336640234349178114e-01 -8.425004722463043105e-01
