1.352691650390625000e-02 4.345703125000000000e-02 -2.167968750000000000e-01 -5.693076680705544401e-01 -9.298589815806500292e-02 8.168490691797384295e-01
1.454162597656250000e-02 4.345703125000000000e-02 -2.167968750000000000e-01 -5.687484469675657683e-01 -1.193457382340310236e-01 8.138069788576134389e-01
1.548767089843750000e-02 4.324340820312500000e-02 -2.158203125000000000e-01 -5.806925014013051278e-01 -1.159947681783443929e-01 8.058172451440509532e-01
1.641845703125000000e-02 4.306030273437500000e-02 -2.147216796875000000e-01 -5.854811651070731537e-01 -1.067831218930799242e-01 8.036225296640405746e-01
1.742553710937500000e-02 4.306030273437500000e-02 -2.147216796875000000e-01 -5.715086397240182192e-01 -1.175032904700370334e-01 8.121396748401820131e-01
1.835632324218750000e-02 4.284667968750000000e-02 -2.137451171875000000e-01 -5.469313490415006473e-01 -1.218419378210638532e-01 8.282636305088205697e-01
1.936340332031250000e-02 4.284667968750000000e-02 -2.137451171875000000e-01 -5.652549415608788541e-01 -1.006698856348554189e-01 8.187505268195389707e-01
2.026367187500000000e-02 4.266357421875000000e-02 -2.127685546875000000e-01 -5.609650237891079527e-01 -1.068536765446728570e-01 8.209144498022749037e-01
2.116394042968750000e-02 4.244995117187500000e-02 -2.117919921875000000e-01 -5.877061363927643667e-01 -1.283565793809065270e-01 7.988279450394325520e-01
2.215576171875000000e-02 4.244995117187500000e-02 -2.117919921875000000e-01 -6.140373176064787275e-01 -1.151625606846763822e-01 7.808301718063850316e-01
2.304077148437500000e-02 4.223632812500000000e-02 -2.108154296875000000e-01 -5.878337172469130234e-01 -1.259127991819474768e-01 7.991229491572887644e-01
2.392578125000000000e-02 4.205322265625000000e-02 -2.097167968750000000e-01 -6.061051245673984011e-01 -1.250072964176414392e-01 7.854996841600195845e-01
2.490234375000000000e-02 4.205322265625000000e-02 -2.097167968750000000e-01 -6.026064850341089629e-01 -1.253105113445184549e-01 7.881387567817049744e-01
2.577209472656250000e-02 4.183959960937500000e-02 -2.087402343750000000e-01 -5.260041088058260428e-01 -1.037928536036512583e-01 8.441248255206096340e-01
2.662658691406250000e-02 4.165649414062500000e-02 -2.077636718750000000e-01 -5.658183080463426995e-01 -8.296249531555373313e-02 8.203455775772736658e-01
2.760314941406250000e-02 4.165649414062500000e-02 -2.077636718750000000e-01 -5.581726746741305645e-01 -8.442169433613289087e-02 8.254188287000385760e-01
2.844238281250000000e-02 4.144287109375000000e-02 -2.067871093750000000e-01 -5.728991362745726734e-01 -1.141334570694819556e-01 8.116403967479792758e-01
2.940368652343750000e-02 4.144287109375000000e-02 -2.067871093750000000e-01 -5.691961989612869255e-01 -1.192911094472849654e-01 8.135018858582069301e-01
3.022766113281250000e-02 4.122924804687500000e-02 -2.056884765625000000e-01 -5.407724722153285368e-01 -9.884272312256996151e-02 8.353413969029886976e-01
3.118896484375000000e-02 4.122924804687500000e-02 -2.056884765625000000e-01 -5.638609984163535094e-01 -1.266064081140083619e-01 8.161075859771076413e-01
3.201293945312500000e-02 4.104614257812500000e-02 -2.047119140625000000e-01 -5.204555361612763775e-01 -1.033794566461092163e-01 8.476076467462014818e-01
3.280639648437500000e-02 4.083251953125000000e-02 -2.037353515625000000e-01 -5.396406855776676448e-01 -1.310741960401181905e-01 8.316294160271757718e-01
3.375244140625000000e-02 4.083251953125000000e-02 -2.037353515625000000e-01 -5.271100329987141730e-01 -9.138219460977037301e-02 8.448694027010306140e-01
3.454589843750000000e-02 4.064941406250000000e-02 -2.027587890625000000e-01 -5.175145905588750539e-01 -1.253497890904953505e-01 8.464431929749616224e-01
3.549194335937500000e-02 4.064941406250000000e-02 -2.027587890625000000e-01 -5.008836740141527910e-01 -7.770181792712595181e-02 8.620197054574239015e-01
3.625488281250000000e-02 4.043579101562500000e-02 -2.017822265625000000e-01 -5.196347559224071544e-01 -5.999098875112482410e-02 8.522797672748795295e-01
3.720092773437500000e-02 4.043579101562500000e-02 -2.017822265625000000e-01 -4.828884981703059909e-01 1.511930054664370991e-02 8.755513149357989633e-01
3.796386718750000000e-02 4.022216796875000000e-02 -2.006835937500000000e-01 -4.850405062007819290e-01 2.094766052372547260e-02 8.742407579511902727e-01
3.890991210937500000e-02 4.022216796875000000e-02 -2.006835937500000000e-01 -4.468303480743970879e-01 9.064654965391734376e-02 8.900145184633523332e-01
3.985595703125000000e-02 4.022216796875000000e-02 -2.006835937500000000e-01 -3.982275245480513259e-01 1.200040222084125391e-01 9.094030313046761460e-01
4.058837890625000000e-02 4.003906250000000000e-02 -1.997070312500000000e-01 -4.117738903360123048e-01 9.023733334105582538e-02 9.068073041771557152e-01
4.153442382812500000e-02 4.003906250000000000e-02 -1.997070312500000000e-01 -3.975836019396858934e-01 7.413389890172264463e-02 9.145662603126657464e-01
4.226684570312500000e-02 3.982543945312500000e-02 -1.987304687500000000e-01 -4.014119190396566172e-01 5.113897695605706950e-02 9.144688492719629247e-01
4.318237304687500000e-02 3.982543945312500000e-02 -1.987304687500000000e-01 -4.070725204917741702e-01 6.982846481581708731e-02 9.107227616360208389e-01
4.412841796875000000e-02 3.982543945312500000e-02 -1.987304687500000000e-01 3.401894045823216639e-01 -9.455356677813601951e-02 -9.355911457573002910e-01
4.483032226562500000e-02 3.964233398437500000e-02 -1.977539062500000000e-01 3.033499505457500911e-01 -1.081613149598835422e-01 -9.467206227024103082e-01
4.463195800781250000e-03 4.342651367187500000e-02 -2.218017578125000000e-01 3.742436317699611714e-01 5.633472401837558499e-03 -9.273133063147143140e-01
5.481719970703125000e-03 4.321289062500000000e-02 -2.208251953125000000e-01 -4.084579258506444432e-01 -1.893290196559021046e-02 9.125807734293718276e-01
6.515502929687500000e-03 4.321289062500000000e-02 -2.208251953125000000e-01 -3.962335544533072129e-01 -3.552889669364983627e-02 9.174620797749791778e-01
7.553100585937500000e-03 4.321289062500000000e-02 -2.208251953125000000e-01 -3.950477187353068076e-01 -1.985483818711684251e-02 9.184460165532830622e-01
8.552551269531250000e-03 4.302978515625000000e-02 -2.198486328125000000e-01 -4.103023059396292416e-01 -9.090613415035347922e-02 9.074073465177922015e-01
9.582519531250000000e-03 4.302978515625000000e-02 -2.198486328125000000e-01 -4.617906373890279803e-01 -7.099099433849982710e-02 8.841434758808472960e-01
1.056671142578125000e-02 4.281616210937500000e-02 -2.187500000000000000e-01 -4.887538601159221452e-01 -9.284043515457011952e-02 8.674677618344647234e-01
1.159667968750000000e-02 4.281616210937500000e-02 -2.187500000000000000e-01 -5.186892416464493616e-01 -1.101665560825627888e-01 8.478353616835870854e-01
1.256561279296875000e-02 4.263305664062500000e-02 -2.177734375000000000e-01 -4.992184170000699694e-01 -1.082967365334045751e-01 8.596817951917781198e-01
1.358795166015625000e-02 4.263305664062500000e-02 -2.177734375000000000e-01 -5.501846793689498805e-01 -9.776920413741262139e-02 8.292997053599036050e-01
1.454162597656250000e-02 4.244995117187500000e-02 -2.167968750000000000e-01 -5.530598455472990338e-01 -1.064470071350522157e-01 8.263134041725256340e-01
1.548767089843750000e-02 4.223632812500000000e-02 -2.158203125000000000e-01 -5.895974064026094918e-01 -1.300531659249848093e-01 7.971581225805860482e-01
1.649475097656250000e-02 4.223632812500000000e-02 -2.158203125000000000e-01 -6.082058791031182965e-01 -1.173025996900145668e-01 7.850641430675376897e-01
1.742553710937500000e-02 4.205322265625000000e-02 -2.147216796875000000e-01 -5.536520276560678022e-01 -1.207277369210405654e-01 8.239503903817564368e-01
1.835632324218750000e-02 4.183959960937500000e-02 -2.137451171875000000e-01 -5.767227444209164222e-01 -1.204095628720508182e-01 8.080175822570743183e-01
1.936340332031250000e-02 4.183959960937500000e-02 -2.137451171875000000e-01 -5.703494073924302299e-01 -1.189297886255192699e-01 8.127467372217456187e-01
2.026367187500000000e-02 4.165649414062500000e-02 -2.127685546875000000e-01 -5.591001780238608054e-01 -1.208791832305439046e-01 8.202409487432360535e-01
2.116394042968750000e-02 4.144287109375000000e-02 -2.117919921875000000e-01 -6.001890990043396990e-01 -1.147213086416772193e-01 7.915883190016765880e-01
2.215576171875000000e-02 4.144287109375000000e-02 -2.117919921875000000e-01 -5.984000139664107376e-01 -1.307927035385880732e-01 7.904496770737947653e-01
2.304077148437500000e-02 4.125976562500000000e-02 -2.108154296875000000e-01 -5.860795376087124531e-01 -1.175103585152500602e-01 8.016870282335715192e-01
2.392578125000000000e-02 4.107666015625000000e-02 -2.097167968750000000e-01 -6.009216611382984796e-01 -1.042582052512738416e-01 7.924792639637777691e-01
2.490234375000000000e-02 4.107666015625000000e-02 -2.097167968750000000e-01 -5.909767021476437510e-01 -1.215480482564783443e-01 7.974789084883285861e-01
2.577209472656250000e-02 4.086303710937500000e-02 -2.087402343750000000e-01 -5.660225473921463024e-01 -1.260321694038425144e-01 8.146989432416532617e-01
2.674865722656250000e-02 4.086303710937500000e-02 -2.087402343750000000e-01 -5.846159148006317974e-01 -1.039417978835390222e-01 8.046243439112179541e-01
2.760314941406250000e-02 4.067993164062500000e-02 -2.077636718750000000e-01 -5.237359282405672500e-01 -8.868843673454561427e-02 8.472514612909050058e-01
2.844238281250000000e-02 4.046630859375000000e-02 -2.067871093750000000e-01 -5.858313982516059060e-01 -1.095491301803757367e-01 8.029947452501113858e-01
2.940368652343750000e-02 4.046630859375000000e-02 -2.067871093750000000e-01 -5.737410950463566195e-01 -1.055797453855941148e-01 8.122032216257952797e-01
3.022766113281250000e-02 4.028320312500000000e-02 -2.056884765625000000e-01 -5.323784572341083710e-01 -7.691038215557684243e-02 8.430053210921706341e-01
3.118896484375000000e-02 4.028320312500000000e-02 -2.056884765625000000e-01 -5.619043962741718801e-01 -9.672955632232405065e-02 8.215271403803071637e-01
3.201293945312500000e-02 4.006958007812500000e-02 -2.047119140625000000e-01 -5.212851106393685541e-01 -9.085604892009666034e-02 8.485322691567660502e-01
3.295898437500000000e-02 4.006958007812500000e-02 -2.047119140625000000e-01 -5.376757675137784354e-01 -1.308515851063579705e-01 8.329361510365741461e-01
3.375244140625000000e-02 3.988647460937500000e-02 -2.037353515625000000e-01 -5.255324164285791744e-01 -1.040438402240164845e-01 8.443876826400168456e-01
3.454589843750000000e-02 3.967285156250000000e-02 -2.027587890625000000e-01 -5.209122818276962219e-01 -1.482420161622876875e-01 8.406394585583065737e-01
3.549194335937500000e-02 3.967285156250000000e-02 -2.027587890625000000e-01 -5.132502548881956450e-01 -1.080467027040117878e-01 8.514106446903240144e-01
3.625488281250000000e-02 3.948974609375000000e-02 -2.017822265625000000e-01 -5.396130331668453906e-01 -1.416596308022215478e-01 8.299098284979250506e-01
3.720092773437500000e-02 3.948974609375000000e-02 -2.017822265625000000e-01 -5.141036249937638303e-01 -7.939362316884199244e-02 8.540457337686286898e-01
3.796386718750000000e-02 3.930664062500000000e-02 -2.006835937500000000e-01 -5.195180614537000530e-01 -3.294583595955419969e-02 8.538240777328287567e-01
3.890991210937500000e-02 3.930664062500000000e-02 -2.006835937500000000e-01 -4.643083106262044235e-01 2.642474484737232510e-02 8.852793488742359829e-01
3.964233398437500000e-02 3.909301757812500000e-02 -1.997070312500000000e-01 -3.842302304346376651e-01 8.613313114303425277e-03 9.231971300092631783e-01
4.058837890625000000e-02 3.909301757812500000e-02 -1.997070312500000000e-01 -4.226223278951400375e-01 5.511043251245081875e-02 9.046287681655847956e-01
4.153442382812500000e-02 3.909301757812500000e-02 -1.997070312500000000e-01 -3.739258429112553017e-01 6.029618836031322426e-02 9.254965335820145578e-01
4.226684570312500000e-02 3.890991210937500000e-02 -1.987304687500000000e-01 -4.037613270847860147e-01 5.152488791108896654e-02 9.134122709250638295e-01
4.318237304687500000e-02 3.890991210937500000e-02 -1.987304687500000000e-01 -4.187314898580710154e-01 6.901874772013139037e-02 9.054834906636261005e-01
4.412841796875000000e-02 3.890991210937500000e-02 -1.987304687500000000e-01 -3.368612617022699318e-01 8.469408423017359133e-02 9.377373845916388007e-01
4.483032226562500000e-02 3.869628906250000000e-02 -1.977539062500000000e-01 3.335589639230879810e-01 -1.124776540484409004e-01 -9.359952964231792460e-01
4.574584960937500000e-02 3.869628906250000000e-02 -1.977539062500000000e-01 3.218296478990135823e-01 -1.556693808663614231e-01 -9.339125877692628919e-01
4.669189453125000000e-02 3.869628906250000000e-02 -1.977539062500000000e-01 3.232726294128807076e-01 -1.647703016110363128e-01 -9.318506075436612246e-01
4.463195800781250000e-03 4.238891601562500000e-02 -2.218017578125000000e-01 3.712675564768320169e-01 9.531794648294594774e-03 -9.284770036993404974e-01
5.504608154296875000e-03 4.238891601562500000e-02 -2.218017578125000000e-01 -3.824660427737539004e-01 -3.322711858946772456e-02 9.233719102914201837e-01
6.515502929687500000e-03 4.217529296875000000e-02 -2.208251953125000000e-01 -3.741890114957249214e-01 -4.760665017375355357e-02 9.261296834326638860e-01
7.553100585937500000e-03 4.217529296875000000e-02 -2.208251953125000000e-01 -3.838479902668913701e-01 -5.950572513243539141e-02 9.214769606694089843e-01
8.552551269531250000e-03 4.199218750000000000e-02 -2.198486328125000000e-01 -4.093238721043780393e-01 -1.053250014842047194e-01 9.062894746094268816e-01
9.582519531250000000e-03 4.199218750000000000e-02 -2.198486328125000000e-01 -4.545029304856048613e-01 -9.811269150908903669e-02 8.853253559821043783e-01
1.056671142578125000e-02 4.180908203125000000e-02 -2.187500000000000000e-01 -4.869765243519937337e-01 -1.026899425019251466e-01 8.673572738145470806e-01
1.159667968750000000e-02 4.180908203125000000e-02 -2.187500000000000000e-01 -4.973497684333424429e-01 -9.598109276769845044e-02 8.622243546029183525e-01
1.256561279296875000e-02 4.162597656250000000e-02 -2.177734375000000000e-01 -5.350908077671218122e-01 -1.212944358846137910e-01 8.360415583370018888e-01
1.358795166015625000e-02 4.162597656250000000e-02 -2.177734375000000000e-01 -5.353007679126947638e-01 -1.208732017404022113e-01 8.359681554778886081e-01
1.454162597656250000e-02 4.141235351562500000e-02 -2.167968750000000000e-01 -5.269359370366041295e-01 -1.402017180235015370e-01 8.382612937041854506e-01
1.548767089843750000e-02 4.122924804687500000e-02 -2.158203125000000000e-01 -5.908532040653282635e-01 -1.356843455276414701e-01 7.952875263855653243e-01
1.649475097656250000e-02 4.122924804687500000e-02 -2.158203125000000000e-01 -5.890229307726794206e-01 -1.435084305098053847e-01 7.952718512537555462e-01
1.742553710937500000e-02 4.104614257812500000e-02 -2.147216796875000000e-01 -5.614765405512556207e-01 -1.435475562949116435e-01 8.149467427337526715e-01
1.835632324218750000e-02 4.083251953125000000e-02 -2.137451171875000000e-01 -5.794133643367547215e-01 -1.113009617745592400e-01 8.073984450914065691e-01
1.936340332031250000e-02 4.083251953125000000e-02 -2.137451171875000000e-01 -5.523400986887152531e-01 -1.263875536099979269e-01 8.239821610162565424e-01
2.026367187500000000e-02 4.064941406250000000e-02 -2.127685546875000000e-01 -5.558910636537979233e-01 -1.265355447367520758e-01 8.215679407498949205e-01
2.127075195312500000e-02 4.064941406250000000e-02 -2.127685546875000000e-01 -5.762614236246815791e-01 -1.036837480882999429e-01 8.106617371163001851e-01
2.215576171875000000e-02 4.046630859375000000e-02 -2.117919921875000000e-01 -5.837557927024895621e-01 -1.167870178418720373e-01 8.034861336388391395e-01
2.304077148437500000e-02 4.028320312500000000e-02 -2.108154296875000000e-01 -6.053591598112008088e-01 -1.284519566381878697e-01 7.855191802040851767e-01
2.403259277343750000e-02 4.028320312500000000e-02 -2.108154296875000000e-01 -6.177649301631171763e-01 -1.032126885585633452e-01 7.795598963396411785e-01
2.490234375000000000e-02 4.006958007812500000e-02 -2.097167968750000000e-01 -5.658567939897161114e-01 -1.091270286387675953e-01 8.172498885384774647e-01
2.577209472656250000e-02 3.988647460937500000e-02 -2.087402343750000000e-01 -5.964881548152882740e-01 -1.240281123341743091e-01 7.929810265800022462e-01
2.674865722656250000e-02 3.988647460937500000e-02 -2.087402343750000000e-01 -5.894381785878786140e-01 -1.227235549015946448e-01 7.984369497307345354e-01
2.760314941406250000e-02 3.970336914062500000e-02 -2.077636718750000000e-01 -5.524102645595377892e-01 -1.054813965122929492e-01 8.268715587073229845e-01
2.844238281250000000e-02 3.948974609375000000e-02 -2.067871093750000000e-01 -6.031413263780602829e-01 -8.685239953827265935e-02 7.928916704754557232e-01
2.940368652343750000e-02 3.948974609375000000e-02 -2.067871093750000000e-01 -5.548469874150530057e-01 -7.613024239406922244e-02 8.284618318000295245e-01
3.022766113281250000e-02 3.930664062500000000e-02 -2.056884765625000000e-01 -5.441735220595729228e-01 -8.382718364911218023e-02 8.347743294871600161e-01
3.118896484375000000e-02 3.930664062500000000e-02 -2.056884765625000000e-01 -5.419540704187779667e-01 -8.471941100417100523e-02 8.361270280021001478e-01
3.201293945312500000e-02 3.912353515625000000e-02 -2.047119140625000000e-01 -5.076358326781523767e-01 -5.130791996887660439e-02 8.600426493666615269e-01
3.295898437500000000e-02 3.912353515625000000e-02 -2.047119140625000000e-01 -5.337399469999749568e-01 -9.545850518885994063e-02 8.402436210787751492e-01
3.375244140625000000e-02 3.894042968750000000e-02 -2.037353515625000000e-01 -5.091106345326588123e-01 -8.696482021211088265e-02 8.562963750076423297e-01
3.469848632812500000e-02 3.894042968750000000e-02 -2.037353515625000000e-01 -5.160897808422237887e-01 -1.374094575243234584e-01 8.454407011098392655e-01
3.549194335937500000e-02 3.872680664062500000e-02 -2.027587890625000000e-01 -5.135430184192845138e-01 -1.059921937522655400e-01 8.514923505800816583e-01
3.643798828125000000e-02 3.872680664062500000e-02 -2.027587890625000000e-01 -5.325739342947830579e-01 -1.531674018768616197e-01 8.324090049441248418e-01
3.720092773437500000e-02 3.854370117187500000e-02 -2.017822265625000000e-01 -5.565160773406079286e-01 -1.130027004268410878e-01 8.231161797447938966e-01
3.796386718750000000e-02 3.836059570312500000e-02 -2.006835937500000000e-01 -5.493874616692183688e-01 -1.003200166235464763e-01 8.295235447082285329e-01
3.890991210937500000e-02 3.836059570312500000e-02 -2.006835937500000000e-01 -4.913089180149482482e-01 -5.259247476258643861e-02 8.693960999897156761e-01
3.964233398437500000e-02 3.814697265625000000e-02 -1.997070312500000000e-01 -4.496960630287877292e-01 -5.678482226757247675e-02 8.913747443451877084e-01
4.058837890625000000e-02 3.814697265625000000e-02 -1.997070312500000000e-01 -4.258426448406087972e-01 9.083094659186351227e-03 9.047516450532528953e-01
4.153442382812500000e-02 3.814697265625000000e-02 -1.997070312500000000e-01 -3.977237918325602362e-01 1.225793961754421957e-02 9.174233092344356022e-01
4.226684570312500000e-02 3.796386718750000000e-02 -1.987304687500000000e-01 -4.207497870776104598e-01 5.340607690259449591e-02 9.056033390088729096e-01
4.318237304687500000e-02 3.796386718750000000e-02 -1.987304687500000000e-01 -4.351653818144686769e-01 5.797039959391701858e-02 8.984823444237449719e-01
4.391479492187500000e-02 3.778076171875000000e-02 -1.977539062500000000e-01 -3.202259195556841354e-01 8.464803328589705356e-02 9.435518379535626776e-01
4.483032226562500000e-02 3.778076171875000000e-02 -1.977539062500000000e-01 -3.503152164579386718e-01 1.293115697788291274e-01 9.276625286381694480e-01
4.574584960937500000e-02 3.778076171875000000e-02 -1.977539062500000000e-01 -3.633915969031865645e-01 1.675737946726072181e-01 9.164417988280406657e-01
4.669189453125000000e-02 3.778076171875000000e-02 -1.977539062500000000e-01 3.412412963764545060e-01 -1.739556874135216591e-01 -9.237390304971451194e-01
4.736328125000000000e-02 3.759765625000000000e-02 -1.966552734375000000e-01 3.309899413103238874e-01 -1.528474273466098043e-01 -9.311730895515137885e-01
4.463195800781250000e-03 4.135131835937500000e-02 -2.218017578125000000e-01 3.498447103268725877e-01 1.495917284148613746e-02 -9.366882628730890392e-01
5.504608154296875000e-03 4.135131835937500000e-02 -2.218017578125000000e-01 3.569863942370490317e-01 2.441769781850486321e-02 -9.337903888790429763e-01
6.515502929687500000e-03 4.113769531250000000e-02 -2.208251953125000000e-01 -3.565195283015063499e-01 -5.304091891765203015e-02 9.327810497968118675e-01
7.553100585937500000e-03 4.113769531250000000e-02 -2.208251953125000000e-01 -3.579707231307925897e-01 -7.293283895955177121e-02 9.308801009703223661e-01
8.590698242187500000e-03 4.113769531250000000e-02 -2.208251953125000000e-01 -3.615077361488093777e-01 -7.720560608230013500e-02 9.291670738322722611e-01
9.582519531250000000e-03 4.095458984375000000e-02 -2.198486328125000000e-01 -4.501122924681256743e-01 -9.402675503118680667e-02 8.880078228863717005e-01
1.061248779296875000e-02 4.095458984375000000e-02 -2.198486328125000000e-01 -4.908394119617323081e-01 -1.114312185168570141e-01 8.640947605470765680e-01
1.159667968750000000e-02 4.077148437500000000e-02 -2.187500000000000000e-01 -4.878833458739270101e-01 -1.008520449965753935e-01 8.670632651882277386e-01
1.256561279296875000e-02 4.058837890625000000e-02 -2.177734375000000000e-01 -5.100718335940049863e-01 -1.254409258224124246e-01 8.509355432128016261e-01
1.358795166015625000e-02 4.058837890625000000e-02 -2.177734375000000000e-01 -5.250638843573374182e-01 -1.413774820417664224e-01 8.392379429667813362e-01
1.454162597656250000e-02 4.040527343750000000e-02 -2.167968750000000000e-01 -5.395017015670527938e-01 -1.419529939550896736e-01 8.299320824702710597e-01
1.556396484375000000e-02 4.040527343750000000e-02 -2.167968750000000000e-01 -5.803837956073465421e-01 -1.286509613045134504e-01 8.041166457373174481e-01
1.649475097656250000e-02 4.022216796875000000e-02 -2.158203125000000000e-01 -5.833353965598159219e-01 -1.579554570907037436e-01 7.967244747688305706e-01
1.742553710937500000e-02 4.003906250000000000e-02 -2.147216796875000000e-01 -5.904873095054127274e-01 -1.446668122852760585e-01 7.939749685829370351e-01
1.844787597656250000e-02 4.003906250000000000e-02 -2.147216796875000000e-01 -6.057501231900555005e-01 -1.177474959772346064e-01 7.868940941742565975e-01
1.936340332031250000e-02 3.982543945312500000e-02 -2.137451171875000000e-01 -5.364940093099611618e-01 -1.178257149678307303e-01 8.356382464121917542e-01
2.026367187500000000e-02 3.964233398437500000e-02 -2.127685546875000000e-01 -5.725519974342119234e-01 -1.200208018194468956e-01 8.110358915391544521e-01
2.127075195312500000e-02 3.964233398437500000e-02 -2.127685546875000000e-01 -5.989847210059559002e-01 -1.072334843315094072e-01 7.935479089755963500e-01
2.215576171875000000e-02 3.945922851562500000e-02 -2.117919921875000000e-01 -5.585405977556200385e-01 -1.103404549250985439e-01 8.221054583602499521e-01
2.304077148437500000e-02 3.927612304687500000e-02 -2.108154296875000000e-01 -6.194395824162237663e-01 -1.115097241991102328e-01 7.770844131399450294e-01
2.403259277343750000e-02 3.927612304687500000e-02 -2.108154296875000000e-01 -6.042583072476748196e-01 -1.256520089985614930e-01 7.868185755031461559e-01
2.490234375000000000e-02 3.909301757812500000e-02 -2.097167968750000000e-01 -5.469612259432888868e-01 -1.072951866739422500e-01 8.302536722178459616e-01
2.577209472656250000e-02 3.890991210937500000e-02 -2.087402343750000000e-01 -5.919159038826140584e-01 -9.844019579356154404e-02 7.999656808782193984e-01
2.674865722656250000e-02 3.890991210937500000e-02 -2.087402343750000000e-01 -5.756448950563626266e-01 -1.173732453173401413e-01 8.092320285797053314e-01
2.760314941406250000e-02 3.872680664062500000e-02 -2.077636718750000000e-01 -5.797953813362384246e-01 -8.963504730375784768e-02 8.098165681659142967e-01
2.857971191406250000e-02 3.872680664062500000e-02 -2.077636718750000000e-01 -5.930964278791978073e-01 -7.487656601567470316e-02 8.016421440384955410e-01
2.940368652343750000e-02 3.854370117187500000e-02 -2.067871093750000000e-01 -5.547959501464184706e-01 -9.210023771893700861e-02 8.268730252664238112e-01
3.022766113281250000e-02 3.833007812500000000e-02 -2.056884765625000000e-01 -5.687608063634713718e-01 -8.774239628206896568e-02 8.178095236908494714e-01
3.118896484375000000e-02 3.833007812500000000e-02 -2.056884765625000000e-01 -5.404658358013149089e-01 -6.263965356572859244e-02 8.390309613671904643e-01
3.201293945312500000e-02 3.814697265625000000e-02 -2.047119140625000000e-01 -4.905064879225664587e-01 -3.277927976666328985e-02 8.708208220545992084e-01
3.295898437500000000e-02 3.814697265625000000e-02 -2.047119140625000000e-01 -5.069385150668542783e-01 -6.229761178113570053e-02 8.597280671864677704e-01
3.375244140625000000e-02 3.796386718750000000e-02 -2.037353515625000000e-01 -4.914706493577068458e-01 -2.917740406238614886e-02 8.704052389043244187e-01
3.469848632812500000e-02 3.796386718750000000e-02 -2.037353515625000000e-01 -5.123324596203040482e-01 -8.804649497319033680e-02 8.542618249356256355e-01
3.549194335937500000e-02 3.778076171875000000e-02 -2.027587890625000000e-01 -4.997861735102660519e-01 -7.771941527906039981e-02 8.626548981236048519e-01
3.643798828125000000e-02 3.778076171875000000e-02 -2.027587890625000000e-01 -5.246800121765933245e-01 -1.307118734693482054e-01 8.412046665089910613e-01
3.720092773437500000e-02 3.759765625000000000e-02 -2.017822265625000000e-01 -5.563607869490019286e-01 -9.993802096425780102e-02 8.249091263352800185e-01
3.814697265625000000e-02 3.759765625000000000e-02 -2.017822265625000000e-01 -5.721003375242454947e-01 -1.434305987116297476e-01 8.075449629326332257e-01
3.890991210937500000e-02 3.741455078125000000e-02 -2.006835937500000000e-01 -5.085014057658046038e-01 -9.615342474621203783e-02 8.556756624117429766e-01
3.964233398437500000e-02 3.723144531250000000e-02 -1.997070312500000000e-01 -4.740711857655366401e-01 -1.035671370783384920e-01 8.743742670871864631e-01
4.058837890625000000e-02 3.723144531250000000e-02 -1.997070312500000000e-01 -4.474401274401321182e-01 -5.251189062277246411e-02 8.927708741326523256e-01
4.153442382812500000e-02 3.723144531250000000e-02 -1.997070312500000000e-01 -4.204536180471578621e-01 -4.948022753637519588e-02 9.059638304888354421e-01
4.226684570312500000e-02 3.704833984375000000e-02 -1.987304687500000000e-01 -4.450385241596385155e-01 3.840991167368573711e-02 8.946873144842450998e-01
4.318237304687500000e-02 3.704833984375000000e-02 -1.987304687500000000e-01 -4.475770015793110734e-01 4.337444277169372198e-02 8.931928601212162366e-01
4.391479492187500000e-02 3.683471679687500000e-02 -1.977539062500000000e-01 -3.716018702422048126e-01 8.504168691595662133e-02 9.244890272572109380e-01
4.483032226562500000e-02 3.683471679687500000e-02 -1.977539062500000000e-01 -3.878636714008937836e-01 1.288175746117799503e-01 9.126706990358339766e-01
4.574584960937500000e-02 3.683471679687500000e-02 -1.977539062500000000e-01 -3.662045248759873695e-01 1.358206541910907672e-01 9.205688436262963181e-01
4.644775390625000000e-02 3.665161132812500000e-02 -1.966552734375000000e-01 -3.179065258387899218e-01 1.832059233971108647e-01 9.302532077135358124e-01
4.736328125000000000e-02 3.665161132812500000e-02 -1.966552734375000000e-01 3.422486658848904462e-01 -1.965989504611969363e-01 -9.188115712035674898e-01
4.830932617187500000e-02 3.665161132812500000e-02 -1.966552734375000000e-01 3.260125577692784549e-01 -1.842302294508527116e-01 -9.272405484733827752e-01
5.504608154296875000e-03 4.028320312500000000e-02 -2.218017578125000000e-01 3.193155975012084147e-01 2.001264098954992632e-02 -9.474370920504801008e-01
6.515502929687500000e-03 4.010009765625000000e-02 -2.208251953125000000e-01 -3.516599816288733527e-01 -4.553845071944781497e-02 9.350195221634963749e-01
7.553100585937500000e-03 4.010009765625000000e-02 -2.208251953125000000e-01 -3.626269810180741682e-01 -2.639755290981069674e-02 9.315604338088275815e-01
8.590698242187500000e-03 4.010009765625000000e-02 -2.208251953125000000e-01 -3.466078999286224538e-01 -6.324120890994790189e-02 9.358758000945844868e-01
9.582519531250000000e-03 3.991699218750000000e-02 -2.198486328125000000e-01 -4.322404695105300787e-01 -6.011508282845930140e-02 8.997523844557701045e-01
1.061248779296875000e-02 3.991699218750000000e-02 -2.198486328125000000e-01 -4.818793944867134083e-01 -9.221084685296671024e-02 8.713721414480595229e-01
1.159667968750000000e-02 3.973388671875000000e-02 -2.187500000000000000e-01 -4.900339157616974139e-01 -9.219426020451666759e-02 8.668142706419867949e-01
1.262664794921875000e-02 3.973388671875000000e-02 -2.187500000000000000e-01 -5.083096445208885594e-01 -1.059436130283781252e-01 8.546328194877267359e-01
1.358795166015625000e-02 3.955078125000000000e-02 -2.177734375000000000e-01 -5.012242699899879250e-01 -1.122665277913416082e-01 8.580037633429584698e-01
1.454162597656250000e-02 3.936767578125000000e-02 -2.167968750000000000e-01 -5.574462419048238360e-01 -1.241118025962174160e-01 8.208836384302625744e-01
1.556396484375000000e-02 3.936767578125000000e-02 -2.167968750000000000e-01 -5.702424383739908009e-01 -1.375669685714664969e-01 8.098758489023748508e-01
1.649475097656250000e-02 3.921508789062500000e-02 -2.158203125000000000e-01 -5.747137930691793573e-01 -1.526001319363952391e-01 8.040007809629486912e-01
1.742553710937500000e-02 3.903198242187500000e-02 -2.147216796875000000e-01 -5.976534480717324849e-01 -1.387329876599411871e-01 7.896603789876477375e-01
1.844787597656250000e-02 3.903198242187500000e-02 -2.147216796875000000e-01 -5.938662363377479325e-01 -1.323011544693875052e-01 7.936115535097163498e-01
1.936340332031250000e-02 3.884887695312500000e-02 -2.137451171875000000e-01 -5.466741193069660776e-01 -1.398719368640169991e-01 8.255805524343832191e-01
2.026367187500000000e-02 3.866577148437500000e-02 -2.127685546875000000e-01 -5.766990833809381156e-01 -1.147409385910347634e-01 8.088588778265550783e-01
2.127075195312500000e-02 3.866577148437500000e-02 -2.127685546875000000e-01 -5.862178360204344241e-01 -1.115241797343277247e-01 8.024406557908843052e-01
2.215576171875000000e-02 3.848266601562500000e-02 -2.117919921875000000e-01 -5.728033193569480597e-01 -1.248596699445542191e-01 8.101274098282313929e-01
2.304077148437500000e-02 3.829956054687500000e-02 -2.108154296875000000e-01 -5.981922232555199059e-01 -1.057496475188619556e-01 7.943444316455264831e-01
2.403259277343750000e-02 3.829956054687500000e-02 -2.108154296875000000e-01 -5.918678498460767656e-01 -1.184702396143941100e-01 7.972811616012822622e-01
2.490234375000000000e-02 3.811645507812500000e-02 -2.097167968750000000e-01 -5.824861567255185113e-01 -1.286643196246932408e-01 8.025929043286199605e-01
2.589416503906250000e-02 3.811645507812500000e-02 -2.097167968750000000e-01 -6.103622477227748089e-01 -8.812135681319518965e-02 7.872055341702087761e-01
2.674865722656250000e-02 3.793334960937500000e-02 -2.087402343750000000e-01 -5.617720349702270966e-01 -8.244220774709618005e-02 8.231740175122114200e-01
2.760314941406250000e-02 3.775024414062500000e-02 -2.077636718750000000e-01 -5.925864190252810859e-01 -1.045549663020757247e-01 7.986924282903685723e-01
2.857971191406250000e-02 3.775024414062500000e-02 -2.077636718750000000e-01 -5.942290803940039057e-01 -1.064847788295008868e-01 7.972156495526969699e-01
2.940368652343750000e-02 3.756713867187500000e-02 -2.067871093750000000e-01 -5.522521255002154072e-01 -9.559117314751564010e-02 8.281786748623607419e-01
3.022766113281250000e-02 3.738403320312500000e-02 -2.056884765625000000e-01 -5.979333007757869911e-01 -8.342419147984410366e-02 7.971926819152986843e-01
3.118896484375000000e-02 3.738403320312500000e-02 -2.056884765625000000e-01 -5.444248404349338877e-01 -7.624298658059543154e-02 8.353374169248422021e-01
3.201293945312500000e-02 3.720092773437500000e-02 -2.047119140625000000e-01 -5.190717421618021854e-01 -4.756202335670287745e-02 8.534063395729656332e-01
3.295898437500000000e-02 3.720092773437500000e-02 -2.047119140625000000e-01 -4.970460635848478748e-01 -3.030065027196174668e-02 8.671949499783215831e-01
3.375244140625000000e-02 3.701782226562500000e-02 -2.037353515625000000e-01 -4.840980698841425012e-01 -1.817733282796707081e-02 8.748249215161335579e-01
3.469848632812500000e-02 3.701782226562500000e-02 -2.037353515625000000e-01 -4.832372178005455710e-01 -4.126188213628956269e-02 8.745165798399472390e-01
3.549194335937500000e-02 3.683471679687500000e-02 -2.027587890625000000e-01 -4.868231289427328301e-01 -1.866913783796154275e-02 8.733010388284182524e-01
3.643798828125000000e-02 3.683471679687500000e-02 -2.027587890625000000e-01 -4.948176642801146996e-01 -5.340143124776102618e-02 8.673544640209459589e-01
3.720092773437500000e-02 3.665161132812500000e-02 -2.017822265625000000e-01 -5.420309603899153839e-01 -5.705861470079092584e-02 8.384191985321022278e-01
3.814697265625000000e-02 3.665161132812500000e-02 -2.017822265625000000e-01 -5.687142081235629920e-01 -1.057755456820898138e-01 8.157056352717227954e-01
3.890991210937500000e-02 3.646850585937500000e-02 -2.006835937500000000e-01 -5.226119412145522336e-01 -8.277160281600406955e-02 8.485432344125001247e-01
3.985595703125000000e-02 3.646850585937500000e-02 -2.006835937500000000e-01 -4.928791813660713950e-01 -1.139703708225041218e-01 8.626012213940414952e-01
4.058837890625000000e-02 3.628540039062500000e-02 -1.997070312500000000e-01 -4.630822239679953101e-01 -5.030212730152896355e-02 8.848867440716896571e-01
4.153442382812500000e-02 3.628540039062500000e-02 -1.997070312500000000e-01 -4.462018105483811503e-01 -4.804217587008120099e-02 8.936419269489400685e-01
4.226684570312500000e-02 3.610229492187500000e-02 -1.987304687500000000e-01 -4.974799585565641835e-01 -4.966743889570007092e-03 8.674612511747683552e-01
4.318237304687500000e-02 3.610229492187500000e-02 -1.987304687500000000e-01 -4.603820662587243540e-01 1.303420939461944969e-02 8.876251812858876322e-01
4.391479492187500000e-02 3.591918945312500000e-02 -1.977539062500000000e-01 -4.473857702062897790e-01 5.635757014917027602e-02 8.925636094440587698e-01
4.483032226562500000e-02 3.591918945312500000e-02 -1.977539062500000000e-01 -4.254900959105481495e-01 9.755526322160709696e-02 8.996894735961933343e-01
4.574584960937500000e-02 3.591918945312500000e-02 -1.977539062500000000e-01 -3.579014175960330557e-01 1.305972665460984894e-01 9.245814887036389873e-01
4.644775390625000000e-02 3.573608398437500000e-02 -1.966552734375000000e-01 -3.700821034103088381e-01 1.629397449548273813e-01 9.145982048142545784e-01
4.736328125000000000e-02 3.573608398437500000e-02 -1.966552734375000000e-01 -3.672939900276115388e-01 1.768411098682283467e-01 9.131387335723800680e-01
4.830932617187500000e-02 3.573608398437500000e-02 -1.966552734375000000e-01 2.934140902505858461e-01 -1.700337554629538783e-01 -9.407426288021528693e-01
4.898071289062500000e-02 3.555297851562500000e-02 -1.956787109375000000e-01 2.827993480629371614e-01 -8.541993573488229630e-02 -9.553679727279045242e-01
4.989624023437500000e-02 3.555297851562500000e-02 -1.956787109375000000e-01 2.990610250498558775e-01 -8.520182015790742081e-02 -9.504226181746253665e-01
5.504608154296875000e-03 3.924560546875000000e-02 -2.218017578125000000e-01 3.296557133477726054e-01 3.985388294409156207e-03 -9.440928065276813497e-01
6.515502929687500000e-03 3.906250000000000000e-02 -2.208251953125000000e-01 3.606150489322958452e-01 -2.105131268478765971e-02 -9.324771464855344805e-01
7.553100585937500000e-03 3.906250000000000000e-02 -2.208251953125000000e-01 -3.394344938968031911e-01 2.043767370688755192e-02 9.404076381263989370e-01
8.590698242187500000e-03 3.906250000000000000e-02 -2.208251953125000000e-01 -3.128738354869301519e-01 6.857220329589761975e-04 9.497944476848614315e-01
9.582519531250000000e-03 3.890991210937500000e-02 -2.198486328125000000e-01 -4.121860798934346981e-01 8.317242803095176162e-03 9.110617207490595559e-01
1.061248779296875000e-02 3.890991210937500000e-02 -2.198486328125000000e-01 -4.481095072490351439e-01 -2.223268708397945284e-02 8.937021747417048800e-01
1.159667968750000000e-02 3.872680664062500000e-02 -2.187500000000000000e-01 -4.789832919475304762e-01 -4.829207886576322717e-02 8.764946555193190436e-01
1.262664794921875000e-02 3.872680664062500000e-02 -2.187500000000000000e-01 -5.088213045671754475e-01 -7.252453847594113323e-02 8.578117924914587800e-01
1.358795166015625000e-02 3.854370117187500000e-02 -2.177734375000000000e-01 -4.744396594255363975e-01 -8.349461858133888637e-02 8.763193814084780930e-01
1.461029052734375000e-02 3.854370117187500000e-02 -2.177734375000000000e-01 -5.288228215735788496e-01 -9.845986230905484637e-02 8.430018261528505752e-01
1.556396484375000000e-02 3.836059570312500000e-02 -2.167968750000000000e-01 -5.368498798106788872e-01 -1.363165723204518009e-01 8.325923364156448958e-01
1.649475097656250000e-02 3.817749023437500000e-02 -2.158203125000000000e-01 -5.884659633445435967e-01 -1.307084503143066956e-01 7.978866529786112771e-01
1.751708984375000000e-02 3.817749023437500000e-02 -2.158203125000000000e-01 -5.963964382867744662e-01 -1.381797551662170276e-01 7.907070529981718998e-01
1.844787597656250000e-02 3.799438476562500000e-02 -2.147216796875000000e-01 -5.791206567090475543e-01 -1.545525509677629084e-01 8.004578527082101269e-01
1.936340332031250000e-02 3.784179687500000000e-02 -2.137451171875000000e-01 -5.793758557940639209e-01 -1.408927021505473332e-01 8.027906727183699021e-01
2.037048339843750000e-02 3.784179687500000000e-02 -2.137451171875000000e-01 -5.957119967604146415e-01 -1.142256262608447454e-01 7.950344163751891235e-01
2.127075195312500000e-02 3.765869140625000000e-02 -2.127685546875000000e-01 -5.833537422517864890e-01 -1.294737825889231975e-01 8.018322461855426075e-01
2.215576171875000000e-02 3.747558593750000000e-02 -2.117919921875000000e-01 -5.876003447752590203e-01 -1.298374212490204516e-01 7.986664377970323914e-01
2.316284179687500000e-02 3.747558593750000000e-02 -2.117919921875000000e-01 -6.148323344027810666e-01 -1.160581906270945068e-01 7.800715973301373118e-01
2.403259277343750000e-02 3.729248046875000000e-02 -2.108154296875000000e-01 -5.720646256803180174e-01 -1.244501616494168850e-01 8.107121692133845148e-01
2.490234375000000000e-02 3.710937500000000000e-02 -2.097167968750000000e-01 -6.060385229918618943e-01 -1.263290514615460214e-01 7.853395949566458478e-01
2.589416503906250000e-02 3.710937500000000000e-02 -2.097167968750000000e-01 -6.255429696197482015e-01 -1.125610713817902925e-01 7.720272005368011836e-01
2.674865722656250000e-02 3.695678710937500000e-02 -2.087402343750000000e-01 -5.391993787986928410e-01 -9.406974684973146150e-02 8.369079475251332001e-01
2.760314941406250000e-02 3.677368164062500000e-02 -2.077636718750000000e-01 -5.865449096973732734e-01 -9.293572578714610899e-02 8.045669765659766437e-01
2.857971191406250000e-02 3.677368164062500000e-02 -2.077636718750000000e-01 -5.762503175071148620e-01 -1.112089026771272277e-01 8.096716319214218860e-01
2.940368652343750000e-02 3.659057617187500000e-02 -2.067871093750000000e-01 -5.769597957842403924e-01 -9.584906619570454644e-02 8.111290591256232752e-01
3.038024902343750000e-02 3.659057617187500000e-02 -2.067871093750000000e-01 -5.940281849095552236e-01 -8.531750948553472325e-02 7.999071434286889604e-01
3.118896484375000000e-02 3.640747070312500000e-02 -2.056884765625000000e-01 -5.480830437749493189e-01 -9.891034212605526177e-02 8.305550682205807833e-01
3.201293945312500000e-02 3.622436523437500000e-02 -2.047119140625000000e-01 -5.574853403714600253e-01 -8.430252563881052152e-02 8.258953804458739612e-01
3.295898437500000000e-02 3.622436523437500000e-02 -2.047119140625000000e-01 -5.214017785591398280e-01 -6.706021753731908341e-02 8.506721533817910297e-01
3.375244140625000000e-02 3.604125976562500000e-02 -2.037353515625000000e-01 -5.099574025130101385e-01 -6.386009111296724050e-02 8.578259359480961965e-01
3.469848632812500000e-02 3.604125976562500000e-02 -2.037353515625000000e-01 -4.840179456692864091e-01 -1.911418588240493960e-02 8.748492876879631064e-01
3.549194335937500000e-02 3.588867187500000000e-02 -2.027587890625000000e-01 -4.801845224440940418e-01 -2.316539661135895087e-02 8.768615562362030991e-01
3.643798828125000000e-02 3.588867187500000000e-02 -2.027587890625000000e-01 -4.831418966831296791e-01 -4.701355933472911759e-03 8.755294426356060589e-01
3.720092773437500000e-02 3.570556640625000000e-02 -2.017822265625000000e-01 -5.305127118148157406e-01 -6.750328559626032898e-02 8.449849519586726254e-01
3.814697265625000000e-02 3.570556640625000000e-02 -2.017822265625000000e-01 -5.315736824434107444e-01 -7.657861335954446735e-02 8.435432034635104159e-01
3.890991210937500000e-02 3.552246093750000000e-02 -2.006835937500000000e-01 -5.295169846958543980e-01 -4.262507501478712130e-02 8.472277532627185970e-01
3.985595703125000000e-02 3.552246093750000000e-02 -2.006835937500000000e-01 -5.175023560377808307e-01 -6.857332203875830812e-02 8.529296635713373709e-01
4.058837890625000000e-02 3.533935546875000000e-02 -1.997070312500000000e-01 -4.786471209292956774e-01 -3.427664127600579119e-02 8.773380451621440868e-01
4.153442382812500000e-02 3.533935546875000000e-02 -1.997070312500000000e-01 -4.711898525337830934e-01 -3.278871597955874961e-02 8.814221593388742448e-01
4.226684570312500000e-02 3.515625000000000000e-02 -1.987304687500000000e-01 -4.974678710505522905e-01 -5.017512201796160524e-03 8.674678909583546371e-01
4.318237304687500000e-02 3.515625000000000000e-02 -1.987304687500000000e-01 -4.713666546870792229e-01 1.630035316935561293e-02 8.817866949187123105e-01
4.391479492187500000e-02 3.500366210937500000e-02 -1.977539062500000000e-01 -4.746865391059012507e-01 3.967457634408215472e-02 8.792602672608260672e-01
4.483032226562500000e-02 3.500366210937500000e-02 -1.977539062500000000e-01 -4.708419723130098378e-01 6.073415277010004582e-02 8.801245365263333786e-01
4.553222656250000000e-02 3.482055664062500000e-02 -1.966552734375000000e-01 -3.900838935572558674e-01 5.842708203739706285e-02 9.189237357212004520e-01
4.644775390625000000e-02 3.482055664062500000e-02 -1.966552734375000000e-01 -4.015813633485049161e-01 1.329976683800465631e-01 9.061147989171279837e-01
4.736328125000000000e-02 3.482055664062500000e-02 -1.966552734375000000e-01 -3.729699766380225601e-01 1.167751100831981304e-01 9.204656268387700901e-01
4.806518554687500000e-02 3.463745117187500000e-02 -1.956787109375000000e-01 -2.635217762510755346e-01 4.608119181052779817e-02 9.635521766893577755e-01
4.898071289062500000e-02 3.463745117187500000e-02 -1.956787109375000000e-01 -3.148969133798915077e-01 4.430971289785480549e-02 9.480910205706658544e-01
4.989624023437500000e-02 3.463745117187500000e-02 -1.956787109375000000e-01 3.268999413764003270e-01 -3.158009265056313519e-03 -9.450536785313243815e-01
5.081176757812500000e-02 3.463745117187500000e-02 -1.956787109375000000e-01 2.759156531666946410e-01 -4.441720331728464533e-02 -9.601550210185161305e-01
5.145263671875000000e-02 3.445434570312500000e-02 -1.947021484375000000e-01 2.522216556569628620e-01 8.795094597933764136e-02 -9.636642919186125811e-01
5.236816406250000000e-02 3.445434570312500000e-02 -1.947021484375000000e-01 2.639188809935731905e-01 1.573825760989047140e-01 -9.516183841202171534e-01
6.515502929687500000e-03 3.802490234375000000e-02 -2.208251953125000000e-01 3.187991703170247049e-01 -8.408284102204090227e-02 -9.440853588796083162e-01
7.553100585937500000e-03 3.802490234375000000e-02 -2.208251953125000000e-01 -2.966812614219026534e-01 1.027102092688729484e-01 9.494371185249989020e-01
8.590698242187500000e-03 3.802490234375000000e-02 -2.208251953125000000e-01 -3.047723697758191741e-01 7.031686362262247469e-02 9.498259531680048884e-01
9.582519531250000000e-03 3.787231445312500000e-02 -2.198486328125000000e-01 -4.010041292708479976e-01 5.189752064962649403e-02 9.146050161999716988e-01
1.061248779296875000e-02 3.787231445312500000e-02 -2.198486328125000000e-01 -4.148708185304657570e-01 2.070183435048707568e-02 9.096447867087384953e-01
1.159667968750000000e-02 3.768920898437500000e-02 -2.187500000000000000e-01 -4.671943396244164215e-01 -2.784986856582007467e-02 8.837159237242315779e-01
1.262664794921875000e-02 3.768920898437500000e-02 -2.187500000000000000e-01 -4.840148429537333152e-01 -4.435050897619990939e-02 8.739351601543589032e-01
1.358795166015625000e-02 3.750610351562500000e-02 -2.177734375000000000e-01 -4.754281098468839950e-01 -5.308658299571408085e-02 8.781514260497778057e-01
1.461029052734375000e-02 3.750610351562500000e-02 -2.177734375000000000e-01 -5.190930722500096683e-01 -7.214701481029960062e-02 8.516673004149030168e-01
1.556396484375000000e-02 3.735351562500000000e-02 -2.167968750000000000e-01 -4.963488256802319754e-01 -9.771146082107774744e-02 8.626066969772873128e-01
1.649475097656250000e-02 3.717041015625000000e-02 -2.158203125000000000e-01 -5.993094305718744685e-01 -1.163947867422782251e-01 7.920103913755393021e-01
1.751708984375000000e-02 3.717041015625000000e-02 -2.158203125000000000e-01 -5.948028609597071359e-01 -1.300542172877343361e-01 7.932814488942888653e-01
1.844787597656250000e-02 3.698730468750000000e-02 -2.147216796875000000e-01 -5.839711148238480032e-01 -1.298373064013730316e-01 8.013239113603363162e-01
1.936340332031250000e-02 3.683471679687500000e-02 -2.137451171875000000e-01 -6.027733587642127855e-01 -1.144327447246801799e-01 7.896641215725112017e-01
2.037048339843750000e-02 3.683471679687500000e-02 -2.137451171875000000e-01 -5.820744403697720726e-01 -1.278962784464026392e-01 8.030142513229617807e-01
2.127075195312500000e-02 3.665161132812500000e-02 -2.127685546875000000e-01 -5.840772631895513323e-01 -1.252909840963091492e-01 8.019700243333176548e-01
2.215576171875000000e-02 3.646850585937500000e-02 -2.117919921875000000e-01 -6.003850374406669577e-01 -1.158187432681025419e-01 7.912798654870261128e-01
2.316284179687500000e-02 3.646850585937500000e-02 -2.117919921875000000e-01 -5.988953526525585547e-01 -1.317195385326729862e-01 7.899204515265492166e-01
2.403259277343750000e-02 3.631591796875000000e-02 -2.108154296875000000e-01 -5.854692808458143993e-01 -1.188109587525237459e-01 8.019411931470978860e-01
2.490234375000000000e-02 3.613281250000000000e-02 -2.097167968750000000e-01 -6.191654034366120829e-01 -1.035322208371847186e-01 7.784056027776893316e-01
2.589416503906250000e-02 3.613281250000000000e-02 -2.097167968750000000e-01 -6.145387233374011160e-01 -1.177747326831628666e-01 7.800456844699845682e-01
2.674865722656250000e-02 3.594970703125000000e-02 -2.087402343750000000e-01 -5.758551760038890244e-01 -9.701840220538925086e-02 8.117747507178597610e-01
2.760314941406250000e-02 3.579711914062500000e-02 -2.077636718750000000e-01 -5.780675395173149322e-01 -5.317134058913929040e-02 8.142547072607878578e-01
2.857971191406250000e-02 3.579711914062500000e-02 -2.077636718750000000e-01 -5.312596807341738447e-01 -8.694805706433154924e-02 8.427355379945487002e-01
2.940368652343750000e-02 3.561401367187500000e-02 -2.067871093750000000e-01 -5.902477810899254829e-01 -1.141987868594843830e-01 7.991033687816874176e-01
3.038024902343750000e-02 3.561401367187500000e-02 -2.067871093750000000e-01 -5.918372080039258076e-01 -1.166834427110016864e-01 7.975673598005540432e-01
3.118896484375000000e-02 3.543090820312500000e-02 -2.056884765625000000e-01 -5.553845550349980620e-01 -9.735194599742905130e-02 8.258756532548290341e-01
3.201293945312500000e-02 3.527832031250000000e-02 -2.047119140625000000e-01 -5.652456295688434995e-01 -9.577960915430576427e-02 8.193434229452081219e-01
3.295898437500000000e-02 3.527832031250000000e-02 -2.047119140625000000e-01 -5.228666670858018728e-01 -9.178901438755091013e-02 8.474580964793169136e-01
3.375244140625000000e-02 3.509521484375000000e-02 -2.037353515625000000e-01 -5.126448590167956842e-01 -1.262568696923048461e-01 8.492670082954771882e-01
3.469848632812500000e-02 3.509521484375000000e-02 -2.037353515625000000e-01 -4.961721431279230154e-01 -7.866894951099735744e-02 8.646527631174724116e-01
