3.189086914062500000e-03 5.527496337890625000e-03 -2.067871093750000000e-01 2.925858954657541977e-01 4.696878789820562727e-01 8.329386472675164299e-01
4.161834716796875000e-03 5.527496337890625000e-03 -2.067871093750000000e-01 3.410510931331245388e-01 4.333310388317841988e-01 8.342112218483203057e-01
5.157470703125000000e-03 5.554199218750000000e-03 -2.077636718750000000e-01 3.870416169272690166e-01 3.843061249917326117e-01 8.381572579535202516e-01
6.134033203125000000e-03 5.554199218750000000e-03 -2.077636718750000000e-01 4.003545445878320397e-01 3.527479866753646665e-01 8.457452905717810498e-01
7.141113281250000000e-03 5.580902099609375000e-03 -2.087402343750000000e-01 4.184039389049305502e-01 2.963582583611423793e-01 8.585510623195277136e-01
8.117675781250000000e-03 5.580902099609375000e-03 -2.087402343750000000e-01 3.775787774557074483e-01 2.417005952463809892e-01 8.938764394884778364e-01
9.147644042968750000e-03 5.607604980468750000e-03 -2.097167968750000000e-01 3.967983884405775763e-01 2.141876501118510912e-01 8.925663501782507003e-01
1.013183593750000000e-02 5.607604980468750000e-03 -2.097167968750000000e-01 3.642883324448439319e-01 1.859155845569138710e-01 9.125400847433584595e-01
1.111602783203125000e-02 5.607604980468750000e-03 -2.097167968750000000e-01 3.701044388937554941e-01 1.935648640166019729e-01 9.086007636632124074e-01
1.216125488281250000e-02 5.634307861328125000e-03 -2.108154296875000000e-01 -3.908681636243538371e-01 -1.622208484825184149e-01 -9.060388926434320700e-01
-1.852416992187500000e-02 4.642486572265625000e-03 -2.108154296875000000e-01 3.614241253466844994e-01 7.492859017194354598e-02 -9.293859843962726242e-01
-1.753234863281250000e-02 4.642486572265625000e-03 -2.108154296875000000e-01 3.614241253466844994e-01 7.492859017194354598e-02 -9.293859843962726242e-01
-1.654052734375000000e-02 4.642486572265625000e-03 -2.108154296875000000e-01 -3.632445087431158681e-01 -6.159100983160310794e-02 9.296558365201048613e-01
-1.548004150390625000e-02 4.623413085937500000e-03 -2.097167968750000000e-01 -4.307698277712542767e-01 -5.132622486451155625e-02 9.010010955171372515e-01
-1.449584960937500000e-02 4.623413085937500000e-03 -2.097167968750000000e-01 -4.057075220438132734e-01 -3.545664801807776184e-02 9.133149690377306840e-01
-1.344299316406250000e-02 4.600524902343750000e-03 -2.087402343750000000e-01 -3.365420820293831827e-01 2.223065679046130200e-02 9.414059830498171522e-01
-1.246643066406250000e-02 4.600524902343750000e-03 -2.087402343750000000e-01 -3.755061037779997002e-01 3.346533616573764414e-02 9.262155458103585870e-01
-1.148223876953125000e-02 4.600524902343750000e-03 -2.087402343750000000e-01 -3.163739253318540445e-01 5.545997500351078358e-02 9.470120012664697828e-01
-1.045227050781250000e-02 4.577636718750000000e-03 -2.077636718750000000e-01 -3.717163588346218406e-01 8.093263842010772757e-02 9.248117952389507401e-01
-9.475708007812500000e-03 4.577636718750000000e-03 -2.077636718750000000e-01 -3.833311891050333320e-01 9.611147714174525514e-02 9.185966380413945753e-01
-8.460998535156250000e-03 4.554748535156250000e-03 -2.067871093750000000e-01 -3.403472867847611716e-01 1.159436733575963802e-01 9.331242087667636076e-01
-7.492065429687500000e-03 4.554748535156250000e-03 -2.067871093750000000e-01 -3.468625126510210821e-01 1.412496721545413725e-01 9.272189209855754566e-01
-6.519317626953125000e-03 4.554748535156250000e-03 -2.067871093750000000e-01 -3.222642768429353488e-01 2.428680879443195217e-01 9.149649325133560884e-01
-5.519866943359375000e-03 4.531860351562500000e-03 -2.056884765625000000e-01 -2.362255648791042606e-01 4.143861945018781356e-01 8.789093037986340784e-01
-4.554748535156250000e-03 4.531860351562500000e-03 -2.056884765625000000e-01 -2.226077480920062024e-01 4.721914779748455637e-01 8.529249665810803016e-01
-3.589630126953125000e-03 4.531860351562500000e-03 -2.056884765625000000e-01 -1.963085131360713387e-01 5.482712500814335144e-01 8.129339481190629435e-01
-2.622604370117187500e-03 4.531860351562500000e-03 -2.056884765625000000e-01 -1.954627121918548205e-01 6.072421619865598919e-01 7.700982306488520779e-01
-1.648902893066406250e-03 4.512786865234375000e-03 -2.047119140625000000e-01 -7.434438481467958715e-02 7.012979588490626526e-01 7.089810190411766078e-01
-6.871223449707031250e-04 4.512786865234375000e-03 -2.047119140625000000e-01 1.705330698037548637e-02 6.764753846418091188e-01 7.362677764881127018e-01
2.744197845458984375e-04 4.512786865234375000e-03 -2.047119140625000000e-01 1.334270162233752999e-01 6.419815460114902672e-01 7.550211426989471564e-01
1.241683959960937500e-03 4.531860351562500000e-03 -2.056884765625000000e-01 2.341454988327534570e-01 5.780309141389300409e-01 7.817008044489105467e-01
2.208709716796875000e-03 4.531860351562500000e-03 -2.056884765625000000e-01 2.575732786858080936e-01 5.555645921822724986e-01 7.905719385485348027e-01
3.173828125000000000e-03 4.531860351562500000e-03 -2.056884765625000000e-01 3.149928166859328194e-01 5.389980191624412775e-01 7.811918207298554906e-01
4.161834716796875000e-03 4.554748535156250000e-03 -2.067871093750000000e-01 3.546852852547021651e-01 4.901137372124248492e-01 7.962329263597811568e-01
5.130767822265625000e-03 4.554748535156250000e-03 -2.067871093750000000e-01 3.977938194622269164e-01 4.764524047955130959e-01 7.840619766078610331e-01
6.134033203125000000e-03 4.577636718750000000e-03 -2.077636718750000000e-01 4.292851500173122115e-01 4.161040391164929630e-01 8.016056939702673745e-01
7.106781005859375000e-03 4.577636718750000000e-03 -2.077636718750000000e-01 4.591476851275926307e-01 3.993022325019389696e-01 7.935623040196280176e-01
8.117675781250000000e-03 4.600524902343750000e-03 -2.087402343750000000e-01 4.212736047863275268e-01 3.289417997428276119e-01 8.451779944439411496e-01
9.101867675781250000e-03 4.600524902343750000e-03 -2.087402343750000000e-01 3.983489226251141768e-01 2.760597943484542349e-01 8.747051650628914210e-01
1.013183593750000000e-02 4.623413085937500000e-03 -2.097167968750000000e-01 3.965905977342938926e-01 2.426082584905264738e-01 8.853570639583497881e-01
1.111602783203125000e-02 4.623413085937500000e-03 -2.097167968750000000e-01 4.004378493042674569e-01 2.008781800123027594e-01 8.940343872802196667e-01
1.216125488281250000e-02 4.642486572265625000e-03 -2.108154296875000000e-01 -3.771936726530674688e-01 -1.943592052939689119e-01 -9.055105922229668147e-01
-1.753234863281250000e-02 3.654479980468750000e-03 -2.108154296875000000e-01 -3.893372971443254671e-01 -7.278518428739423618e-02 9.182149998778070810e-01
-1.654052734375000000e-02 3.654479980468750000e-03 -2.108154296875000000e-01 -4.102935834250482916e-01 -6.732124402789858852e-02 9.094652415033622761e-01
-1.548004150390625000e-02 3.637313842773437500e-03 -2.097167968750000000e-01 -4.182308069760509728e-01 -3.908413143178703780e-02 9.074995442237885346e-01
-1.449584960937500000e-02 3.637313842773437500e-03 -2.097167968750000000e-01 -4.126044923463086378e-01 3.909923059485274389e-03 9.109018857139959957e-01
-1.344299316406250000e-02 3.620147705078125000e-03 -2.087402343750000000e-01 -3.754641144157018218e-01 6.447071012388110034e-02 9.245919242142206507e-01
-1.246643066406250000e-02 3.620147705078125000e-03 -2.087402343750000000e-01 -3.939969624804756099e-01 7.414683379389964968e-02 9.161160628405652373e-01
-1.148223876953125000e-02 3.620147705078125000e-03 -2.087402343750000000e-01 -3.274223431978237064e-01 9.434760174384707043e-02 9.401559121869260682e-01
-1.045227050781250000e-02 3.602981567382812500e-03 -2.077636718750000000e-01 -3.940001245900364713e-01 1.027582741887492490e-01 9.133480382136841547e-01
-9.475708007812500000e-03 3.602981567382812500e-03 -2.077636718750000000e-01 -3.697602876309324382e-01 1.183003881271402907e-01 9.215651620260274512e-01
-8.460998535156250000e-03 3.585815429687500000e-03 -2.067871093750000000e-01 -3.916142309262613530e-01 1.412556105043533405e-01 9.092222757043929571e-01
-7.492065429687500000e-03 3.585815429687500000e-03 -2.067871093750000000e-01 -4.170717828138478800e-01 1.901278612032887838e-01 8.887646057166888047e-01
-6.488800048828125000e-03 3.568649291992187500e-03 -2.056884765625000000e-01 -3.962154407391152988e-01 3.148067333310538563e-01 8.625022000953617152e-01
-5.519866943359375000e-03 3.568649291992187500e-03 -2.056884765625000000e-01 -3.603401541247475137e-01 4.613643207586516914e-01 8.107391299649111538e-01
-4.531860351562500000e-03 3.549575805664062500e-03 -2.047119140625000000e-01 3.128642624954848239e-01 -6.734792301542078530e-01 -6.697325434858693027e-01
-3.572463989257812500e-03 3.549575805664062500e-03 -2.047119140625000000e-01 2.920314319839842354e-01 -6.986161410505382641e-01 -6.531869029588990294e-01
-2.609252929687500000e-03 3.549575805664062500e-03 -2.047119140625000000e-01 1.710338363909126025e-01 -7.187946079429287094e-01 -6.738558736121380566e-01
-1.640319824218750000e-03 3.532409667968750000e-03 -2.037353515625000000e-01 -2.089481722262502561e-02 7.046845946759536794e-01 7.092129642354405572e-01
-6.837844848632812500e-04 3.532409667968750000e-03 -2.037353515625000000e-01 8.228265070744508747e-02 6.679652919335370420e-01 7.396295925425788731e-01
2.729892730712890625e-04 3.532409667968750000e-03 -2.037353515625000000e-01 1.859362363452752021e-01 6.548411925401997902e-01 7.325371857907848616e-01
1.235961914062500000e-03 3.549575805664062500e-03 -2.047119140625000000e-01 2.397180663370140075e-01 6.274503566048168501e-01 7.408382405546645177e-01
2.197265625000000000e-03 3.549575805664062500e-03 -2.047119140625000000e-01 2.855919372250236288e-01 6.074787127979465184e-01 7.412198451805024346e-01
3.158569335937500000e-03 3.549575805664062500e-03 -2.047119140625000000e-01 3.003741395345738696e-01 6.088623183265696737e-01 7.342084537928307286e-01
4.138946533203125000e-03 3.568649291992187500e-03 -2.056884765625000000e-01 3.455717828155466242e-01 5.772106080420134067e-01 7.398702973396443783e-01
5.107879638671875000e-03 3.568649291992187500e-03 -2.056884765625000000e-01 3.811800833578159464e-01 5.728070033796928140e-01 7.256678861094137956e-01
6.103515625000000000e-03 3.585815429687500000e-03 -2.067871093750000000e-01 4.578324206943973351e-01 4.943017615767231199e-01 7.389555081757335220e-01
7.106781005859375000e-03 3.602981567382812500e-03 -2.077636718750000000e-01 4.858604081185705081e-01 4.317319241218509074e-01 7.599652686254159129e-01
8.079528808593750000e-03 3.602981567382812500e-03 -2.077636718750000000e-01 4.891316273883350441e-01 4.071514239310216055e-01 7.713481503701039577e-01
9.101867675781250000e-03 3.620147705078125000e-03 -2.087402343750000000e-01 4.180645804490512041e-01 3.195956292310123126e-01 8.503414845521721777e-01
1.013183593750000000e-02 3.637313842773437500e-03 -2.097167968750000000e-01 4.057503554238257037e-01 2.824170228016659734e-01 8.692567367039972792e-01
1.111602783203125000e-02 3.637313842773437500e-03 -2.097167968750000000e-01 -4.039743821343079189e-01 -2.435604512749496298e-01 -8.817499674816815514e-01
1.210021972656250000e-02 3.637313842773437500e-03 -2.097167968750000000e-01 -4.039743821343079189e-01 -2.435604512749496298e-01 -8.817499674816815514e-01
-1.753234863281250000e-02 2.664566040039062500e-03 -2.108154296875000000e-01 4.205641925425038785e-01 4.622009798040604966e-02 -9.060846883673472352e-01
-1.654052734375000000e-02 2.664566040039062500e-03 -2.108154296875000000e-01 4.068267210476656515e-01 2.608474174958969050e-02 -9.131328519385675246e-01
-1.548004150390625000e-02 2.651214599609375000e-03 -2.097167968750000000e-01 4.197992742978342573e-01 3.346339642467158204e-02 -9.069998734281814468e-01
-1.449584960937500000e-02 2.651214599609375000e-03 -2.097167968750000000e-01 4.244742333192366157e-01 -6.692363110035851048e-02 -9.029633729273789378e-01
-1.344299316406250000e-02 2.639770507812500000e-03 -2.087402343750000000e-01 -3.718785116757222231e-01 1.195124604898332860e-01 9.205558887658673584e-01
-1.246643066406250000e-02 2.639770507812500000e-03 -2.087402343750000000e-01 -3.687635856362954656e-01 1.129004274959544141e-01 9.226412690639267389e-01
-1.142883300781250000e-02 2.626419067382812500e-03 -2.077636718750000000e-01 -3.527941226998502766e-01 1.436124765551191618e-01 9.246143864153035796e-01
-1.045227050781250000e-02 2.626419067382812500e-03 -2.077636718750000000e-01 -3.794274538396886776e-01 1.343584300424933708e-01 9.154139061371349140e-01
-9.475708007812500000e-03 2.626419067382812500e-03 -2.077636718750000000e-01 -3.839053708292662903e-01 1.298818288598581616e-01 9.141921990371948414e-01
-8.460998535156250000e-03 2.614974975585937500e-03 -2.067871093750000000e-01 -4.174143433180134699e-01 1.758086173748018566e-01 8.915473044371522438e-01
-7.492065429687500000e-03 2.614974975585937500e-03 -2.067871093750000000e-01 4.309802546164639425e-01 -2.021251073544160781e-01 -8.794324653477912923e-01
-6.488800048828125000e-03 2.601623535156250000e-03 -2.056884765625000000e-01 4.997026173701581420e-01 -4.444058205385130189e-01 -7.435057234916918611e-01
-5.493164062500000000e-03 2.588272094726562500e-03 -2.047119140625000000e-01 4.612650327693645913e-01 -5.931583891298400912e-01 -6.598467207989821004e-01
-4.508972167968750000e-03 2.576828002929687500e-03 -2.037353515625000000e-01 2.469963444575197509e-01 -7.823629743247404456e-01 -5.717525533221236023e-01
-3.536224365234375000e-03 2.563476562500000000e-03 -2.027587890625000000e-01 1.459466290672031819e-01 -7.391090508350668387e-01 -6.575845135323725721e-01
-2.584457397460937500e-03 2.563476562500000000e-03 -2.027587890625000000e-01 8.813915687060357163e-02 -7.333896764706250293e-01 -6.740705241089027799e-01
-1.632690429687500000e-03 2.563476562500000000e-03 -2.027587890625000000e-01 2.529379428667520233e-02 6.985112139761547878e-01 7.151519474350481742e-01
-6.804466247558593750e-04 2.563476562500000000e-03 -2.027587890625000000e-01 1.596818491612025381e-01 6.647507865009767425e-01 7.298000403499521616e-01
2.729892730712890625e-04 2.576828002929687500e-03 -2.037353515625000000e-01 1.820280211029983164e-01 6.657632254371133040e-01 7.236194629699355119e-01
1.229286193847656250e-03 2.576828002929687500e-03 -2.037353515625000000e-01 2.393898741701328825e-01 6.257468549098271771e-01 7.423835677837081759e-01
2.185821533203125000e-03 2.576828002929687500e-03 -2.037353515625000000e-01 2.747224565458610268e-01 6.494131721099115628e-01 7.090769378280116220e-01
3.158569335937500000e-03 2.588272094726562500e-03 -2.047119140625000000e-01 2.854855271918211312e-01 6.438802704626828133e-01 7.098705593788985357e-01
4.119873046875000000e-03 2.588272094726562500e-03 -2.047119140625000000e-01 3.223134026463257973e-01 6.306191402093113130e-01 7.059982793719942196e-01
5.107879638671875000e-03 2.601623535156250000e-03 -2.056884765625000000e-01 4.144880976517220095e-01 6.069860658726929925e-01 6.780615995183972844e-01
6.072998046875000000e-03 2.601623535156250000e-03 -2.056884765625000000e-01 4.736961825826074279e-01 5.571410160525225308e-01 6.820599789158046100e-01
7.072448730468750000e-03 2.614974975585937500e-03 -2.067871093750000000e-01 4.880424428206689980e-01 5.032602178566791817e-01 7.131225190165304539e-01
8.079528808593750000e-03 2.626419067382812500e-03 -2.077636718750000000e-01 5.121452094372298536e-01 4.093249094373974661e-01 7.550896655130184820e-01
9.101867675781250000e-03 2.639770507812500000e-03 -2.087402343750000000e-01 4.447828998623776786e-01 3.743417671107308053e-01 8.136562009758356862e-01
1.008605957031250000e-02 2.639770507812500000e-03 -2.087402343750000000e-01 4.428636090143001081e-01 3.288957008192602283e-01 8.340859918458268796e-01
1.111602783203125000e-02 2.653121948242187500e-03 -2.097167968750000000e-01 -4.359258997776244704e-01 -3.090014359865851379e-01 -8.452731644038495862e-01
1.210021972656250000e-02 2.653121948242187500e-03 -2.097167968750000000e-01 -4.367390980239689302e-01 -2.816890597795356221e-01 -8.543478412553816570e-01
-1.449584960937500000e-02 1.667022705078125000e-03 -2.097167968750000000e-01 4.334643652783773393e-01 -8.464935195263502410e-02 -8.971862299700174015e-01
-1.344299316406250000e-02 1.659393310546875000e-03 -2.087402343750000000e-01 3.974061460497675946e-01 -9.477607957782581416e-02 -9.127353668077781146e-01
-1.246643066406250000e-02 1.659393310546875000e-03 -2.087402343750000000e-01 -3.769110451552785124e-01 1.433930260571405213e-01 9.150827853905524334e-01
-1.142883300781250000e-02 1.651763916015625000e-03 -2.077636718750000000e-01 -3.884117175939810762e-01 1.618780503722248021e-01 9.071559041550580904e-01
-1.045227050781250000e-02 1.651763916015625000e-03 -2.077636718750000000e-01 3.708241703489780772e-01 -1.581380522632322427e-01 -9.151403122534728096e-01
-9.429931640625000000e-03 1.643180847167968750e-03 -2.067871093750000000e-01 4.041762636180669666e-01 -1.616660172406605422e-01 -9.002808710604047748e-01
-8.460998535156250000e-03 1.643180847167968750e-03 -2.067871093750000000e-01 4.227098409116987199e-01 -1.679626396520742526e-01 -8.905643952446747891e-01
-7.492065429687500000e-03 1.643180847167968750e-03 -2.067871093750000000e-01 4.537823126148389230e-01 -2.035609793683770263e-01 -8.675508863672009019e-01
-6.488800048828125000e-03 1.635551452636718750e-03 -2.056884765625000000e-01 5.229795222613918826e-01 -4.243173075339446987e-01 -7.392206989948201246e-01
-5.439758300781250000e-03 1.611709594726562500e-03 -2.027587890625000000e-01 1.931874626807855710e-01 -8.115928807491842312e-01 -5.513579601132103658e-01
-4.489898681640625000e-03 1.611709594726562500e-03 -2.027587890625000000e-01 2.074555496877453775e-01 -8.006931725795697341e-01 -5.620076852572558623e-01
-3.519058227539062500e-03 1.603126525878906250e-03 -2.017822265625000000e-01 -4.800140071113255524e-02 7.044491119173444948e-01 7.081294473813626311e-01
-2.571105957031250000e-03 1.603126525878906250e-03 -2.017822265625000000e-01 -6.585534331841549557e-03 6.937973708583529131e-01 7.201401522812079792e-01
-1.624107360839843750e-03 1.603126525878906250e-03 -2.017822265625000000e-01 8.782392629576166176e-02 6.304202218190830820e-01 7.712699280352987019e-01
-6.771087646484375000e-04 1.603126525878906250e-03 -2.017822265625000000e-01 1.571538297133947826e-01 6.306789976101085937e-01 7.599649174665380480e-01
2.715587615966796875e-04 1.611709594726562500e-03 -2.027587890625000000e-01 2.098838065928425589e-01 6.420739319804582568e-01 7.373532759819081406e-01
1.223564147949218750e-03 1.611709594726562500e-03 -2.027587890625000000e-01 2.342349124128765558e-01 6.345232922523601493e-01 7.365556308902660998e-01
2.176284790039062500e-03 1.611709594726562500e-03 -2.027587890625000000e-01 2.501513772884997322e-01 6.527507965355601183e-01 7.150808947684580419e-01
3.143310546875000000e-03 1.619338989257812500e-03 -2.037353515625000000e-01 2.671512801759536870e-01 6.384099328208995283e-01 7.218469028651182118e-01
4.100799560546875000e-03 1.619338989257812500e-03 -2.037353515625000000e-01 3.206375083453587016e-01 6.469902407907069941e-01 6.918057650552379423e-01
5.081176757812500000e-03 1.626968383789062500e-03 -2.047119140625000000e-01 3.804316595898066256e-01 6.495437645870048016e-01 6.583043750939888694e-01
6.042480468750000000e-03 1.626968383789062500e-03 -2.047119140625000000e-01 -4.150286410841821372e-01 -6.842179974999573755e-01 -5.996640384223198561e-01
7.038116455078125000e-03 1.635551452636718750e-03 -2.056884765625000000e-01 4.859900443655364444e-01 6.031674232573203120e-01 6.324576952640457161e-01
8.041381835937500000e-03 1.643180847167968750e-03 -2.067871093750000000e-01 5.420765805991315522e-01 4.694678339210524021e-01 6.969597790973509621e-01
9.056091308593750000e-03 1.651763916015625000e-03 -2.077636718750000000e-01 -4.925264604472732177e-01 -4.386460575840407383e-01 -7.516696893750999253e-01
1.008605957031250000e-02 1.659393310546875000e-03 -2.087402343750000000e-01 -4.581313638813835354e-01 -3.658528410315008417e-01 -8.101032972018833433e-01
-1.344299316406250000e-02 6.790161132812500000e-04 -2.087402343750000000e-01 3.890092436847190083e-01 -1.408279608888682033e-01 -9.104061147420565714e-01
-1.240539550781250000e-02 6.756782531738281250e-04 -2.077636718750000000e-01 3.742057095641512232e-01 -1.592775912986948983e-01 -9.135648503744416837e-01
-1.142883300781250000e-02 6.756782531738281250e-04 -2.077636718750000000e-01 3.753300358913424506e-01 -1.615841230749833768e-01 -9.126981622244521031e-01
-1.045227050781250000e-02 6.756782531738281250e-04 -2.077636718750000000e-01 3.608734407087239027e-01 -1.742474383706052454e-01 -9.161922232874109007e-01
-9.429931640625000000e-03 6.723403930664062500e-04 -2.067871093750000000e-01 4.041762636180669666e-01 -1.616660172406605422e-01 -9.002808710604047748e-01
-8.216857910156250000e-03 6.527900695800781250e-04 -2.006835937500000000e-01 1.489481642149916296e-01 -3.754033384909366555e-01 -9.148151604705967443e-01
-7.270812988281250000e-03 6.527900695800781250e-04 -2.006835937500000000e-01 1.118585950672522922e-01 -4.579674866112811160e-01 -8.819033030420774244e-01
-6.328582763671875000e-03 6.527900695800781250e-04 -2.006835937500000000e-01 7.567565193357607412e-02 -5.110111216035682080e-01 -8.562364330615062080e-01
-5.386352539062500000e-03 6.527900695800781250e-04 -2.006835937500000000e-01 -3.139279918878718628e-02 5.519317356061530511e-01 8.332981767589989763e-01
-4.467010498046875000e-03 6.561279296875000000e-04 -2.017822265625000000e-01 -7.179134078287975618e-02 6.391043377367779943e-01 7.657621359630096824e-01
-3.501892089843750000e-03 6.527900695800781250e-04 -2.006835937500000000e-01 -1.391569485989933332e-02 5.958290362557506770e-01 8.029907303270129582e-01
-2.559661865234375000e-03 6.527900695800781250e-04 -2.006835937500000000e-01 1.446911708434249835e-02 5.873402585495643979e-01 8.092107669437735851e-01
-1.616477966308593750e-03 6.527900695800781250e-04 -2.006835937500000000e-01 9.436464223521159878e-02 5.855643590413059929e-01 8.051147096633900491e-01
-6.771087646484375000e-04 6.561279296875000000e-04 -2.017822265625000000e-01 1.550457109480622153e-01 6.459482770757498660e-01 7.474701672036686562e-01
2.703666687011718750e-04 6.561279296875000000e-04 -2.017822265625000000e-01 2.000781542088844456e-01 6.373441580448974131e-01 7.441512994105478063e-01
1.217842102050781250e-03 6.561279296875000000e-04 -2.017822265625000000e-01 2.285914701384995362e-01 6.315698377359425519e-01 7.408545605192117245e-01
2.164840698242187500e-03 6.561279296875000000e-04 -2.017822265625000000e-01 2.356806764098717255e-01 6.191904094892982657e-01 7.490379533531398293e-01
3.128051757812500000e-03 6.594657897949218750e-04 -2.027587890625000000e-01 2.597373420317547477e-01 6.268713916166137601e-01 7.345534504220434524e-01
4.077911376953125000e-03 6.594657897949218750e-04 -2.027587890625000000e-01 2.739705752420440454e-01 6.618750867480984734e-01 6.977546083285587342e-01
5.031585693359375000e-03 6.594657897949218750e-04 -2.027587890625000000e-01 2.516305534144642753e-01 6.805344554325674089e-01 6.881532674901932323e-01
6.011962890625000000e-03 6.628036499023437500e-04 -2.037353515625000000e-01 -3.060641829362414912e-01 -7.036787794086907244e-01 -6.412182868052553886e-01
7.003784179687500000e-03 6.656646728515625000e-04 -2.047119140625000000e-01 -4.263104640941287049e-01 -7.021009632335721840e-01 -5.703627140954593555e-01
8.041381835937500000e-03 6.723403930664062500e-04 -2.067871093750000000e-01 5.175485122088575585e-01 5.571827386902512558e-01 6.493773427030149481e-01
9.017944335937500000e-03 6.723403930664062500e-04 -2.067871093750000000e-01 4.985913102109696404e-01 5.501885851757269963e-01 6.698501519925487147e-01
-1.240539550781250000e-02 -2.999305725097656250e-04 -2.077636718750000000e-01 3.817687551473961105e-01 -1.796625508400498117e-01 -9.066278097537346925e-01
-1.142883300781250000e-02 -2.999305725097656250e-04 -2.077636718750000000e-01 3.765447308400228232e-01 -1.541809013834312680e-01 -9.134781416789385933e-01
-8.216857910156250000e-03 -2.899169921875000000e-04 -2.006835937500000000e-01 1.516722416960376019e-01 -2.713709469023163900e-01 -9.504490203457723885e-01
-7.270812988281250000e-03 -2.899169921875000000e-04 -2.006835937500000000e-01 -1.321253454633478930e-01 3.749487089143150320e-01 9.175817994978316960e-01
-6.328582763671875000e-03 -2.899169921875000000e-04 -2.006835937500000000e-01 -8.927146148547775162e-02 4.731646564442861802e-01 8.764392814429345924e-01
-5.386352539062500000e-03 -2.896785736083984375e-04 -2.006835937500000000e-01 -3.350839119484327194e-02 4.951658110862952600e-01 8.681520645893694432e-01
-4.444122314453125000e-03 -2.896785736083984375e-04 -2.006835937500000000e-01 -5.123735147539045659e-02 5.219061004433731554e-01 8.514627156451296530e-01
-3.501892089843750000e-03 -2.896785736083984375e-04 -2.006835937500000000e-01 -3.341997672672533670e-02 4.837468518355685920e-01 8.745696590293774442e-01
-2.559661865234375000e-03 -2.896785736083984375e-04 -2.006835937500000000e-01 2.579607374471414027e-02 4.727745740275844377e-01 8.808057474451409519e-01
-1.616477966308593750e-03 -2.896785736083984375e-04 -2.006835937500000000e-01 1.031986820271945243e-01 4.841219669340433018e-01 8.688935223373246419e-01
-6.737709045410156250e-04 -2.896785736083984375e-04 -2.006835937500000000e-01 1.316379985915249740e-01 5.146406812837041045e-01 8.472404655672807205e-01
2.689361572265625000e-04 -2.896785736083984375e-04 -2.006835937500000000e-01 1.918379448418818245e-01 5.393485432817983760e-01 8.199398464391428609e-01
1.217842102050781250e-03 -2.911090850830078125e-04 -2.017822265625000000e-01 2.403292921534994908e-01 5.879894518873860498e-01 7.723407510951169064e-01
2.153396606445312500e-03 -2.896785736083984375e-04 -2.006835937500000000e-01 2.488184462181088352e-01 5.527997298186808628e-01 7.952998425336191834e-01
3.112792968750000000e-03 -2.911090850830078125e-04 -2.017822265625000000e-01 2.513203124110761078e-01 5.549930518155643533e-01 7.929822274212992017e-01
4.058837890625000000e-03 -2.911090850830078125e-04 -2.017822265625000000e-01 2.375960800826768526e-01 5.443658818640999542e-01 8.044960468465129910e-01
5.031585693359375000e-03 -2.927780151367187500e-04 -2.027587890625000000e-01 2.419652344240054709e-01 6.181802525524519032e-01 7.478676358048415018e-01
5.985260009765625000e-03 -2.927780151367187500e-04 -2.027587890625000000e-01 2.139118047572891868e-01 6.597544896523934721e-01 7.203927770105618134e-01
6.935119628906250000e-03 -2.927780151367187500e-04 -2.027587890625000000e-01 -1.893229367065252244e-01 -6.558197756679113866e-01 -7.307922054043181070e-01
7.850646972656250000e-03 -2.911090850830078125e-04 -2.017822265625000000e-01 -1.014589087542759338e-01 -5.828678043858437352e-01 -8.062079213483439588e-01
-1.010131835937500000e-02 -1.232147216796875000e-03 -2.006835937500000000e-01 2.098458216388916497e-01 -9.416353297420816670e-02 -9.731895808107041690e-01
-9.155273437500000000e-03 -1.232147216796875000e-03 -2.006835937500000000e-01 2.085636374269257409e-01 -1.314756205245990739e-01 -9.691312451628633085e-01
-8.216857910156250000e-03 -1.232147216796875000e-03 -2.006835937500000000e-01 1.849982532226453202e-01 -1.586984485859285754e-01 -9.698404243590741380e-01
-7.270812988281250000e-03 -1.232147216796875000e-03 -2.006835937500000000e-01 -1.750822110048106395e-01 2.003852878606644794e-01 9.639460336547195363e-01
-6.328582763671875000e-03 -1.232147216796875000e-03 -2.006835937500000000e-01 -1.154442529138063334e-01 2.919122845987410231e-01 9.494523908914637156e-01
-5.359649658203125000e-03 -1.226425170898437500e-03 -1.997070312500000000e-01 -6.434549558960335480e-02 2.984719543978689438e-01 9.522468953140487136e-01
-4.421234130859375000e-03 -1.226425170898437500e-03 -1.997070312500000000e-01 -6.336135157961542141e-02 2.945812713097227808e-01 9.535235779568074221e-01
-3.484725952148437500e-03 -1.226425170898437500e-03 -1.997070312500000000e-01 -1.575618930748429528e-02 2.540951874489698614e-01 9.670508664045440739e-01
-2.546310424804687500e-03 -1.226425170898437500e-03 -1.997070312500000000e-01 -3.993251013665762277e-04 2.475085265502630638e-01 9.688856329951337498e-01
-1.607894897460937500e-03 -1.226425170898437500e-03 -1.997070312500000000e-01 3.718582640363785052e-02 2.991644026775866494e-01 9.534767299128181772e-01
-6.704330444335937500e-04 -1.226425170898437500e-03 -1.997070312500000000e-01 1.362465974939530700e-01 3.669190773182209320e-01 9.202213078228878018e-01
2.675056457519531250e-04 -1.226425170898437500e-03 -1.997070312500000000e-01 1.523463392674804795e-01 3.967406041917756476e-01 9.052002462976589392e-01
1.211166381835937500e-03 -1.232147216796875000e-03 -2.006835937500000000e-01 2.375572366385909628e-01 4.264750261006523546e-01 8.727460177125325735e-01
2.153396606445312500e-03 -1.232147216796875000e-03 -2.006835937500000000e-01 2.757748844492154960e-01 4.187187938916710483e-01 8.652299028286795091e-01
3.097534179687500000e-03 -1.232147216796875000e-03 -2.006835937500000000e-01 2.914617996583616644e-01 4.097219960408147732e-01 8.643945310448462038e-01
4.058837890625000000e-03 -1.238822937011718750e-03 -2.017822265625000000e-01 2.216109461235814537e-01 4.261799850565479719e-01 8.770742322605377117e-01
5.004882812500000000e-03 -1.238822937011718750e-03 -2.017822265625000000e-01 1.488093927973935526e-01 4.925650808666675595e-01 8.574586903904375390e-01
5.954742431640625000e-03 -1.238822937011718750e-03 -2.017822265625000000e-01 1.115925256021727680e-01 4.784435256532609260e-01 8.709987950566899784e-01
6.900787353515625000e-03 -1.238822937011718750e-03 -2.017822265625000000e-01 -8.216423376333986672e-02 -5.495615884991649214e-01 -8.314030906463829584e-01
7.850646972656250000e-03 -1.238822937011718750e-03 -2.017822265625000000e-01 -6.571565713833735223e-02 -4.759604450104462647e-01 -8.770080428321820332e-01
-1.103973388671875000e-02 -2.174377441406250000e-03 -2.006835937500000000e-01 2.385134128022116662e-01 -1.813901473044929324e-03 -9.711375091483633870e-01
-1.010131835937500000e-02 -2.174377441406250000e-03 -2.006835937500000000e-01 2.599636746737330473e-01 -5.830693946355337831e-02 -9.638564149605077791e-01
-9.155273437500000000e-03 -2.174377441406250000e-03 -2.006835937500000000e-01 -1.971471797544874227e-01 5.245666301659288738e-02 9.789695031102937373e-01
-8.216857910156250000e-03 -2.174377441406250000e-03 -2.006835937500000000e-01 -1.675596967820729699e-01 7.660610531380748767e-02 9.828810979172148965e-01
-7.236480712890625000e-03 -2.164840698242187500e-03 -1.997070312500000000e-01 -2.375940951193176165e-01 1.301115864602568895e-01 9.626110434818561101e-01
-6.298065185546875000e-03 -2.164840698242187500e-03 -1.997070312500000000e-01 -1.750118042359781745e-01 1.819807345536768872e-01 9.676021293017972313e-01
-5.359649658203125000e-03 -2.164840698242187500e-03 -1.997070312500000000e-01 -6.533131311655171469e-02 2.007059755549050473e-01 9.774706803290935664e-01
-4.421234130859375000e-03 -2.164840698242187500e-03 -1.997070312500000000e-01 -2.591399828633844313e-02 1.933277118242364701e-01 9.807919557855380166e-01
-3.484725952148437500e-03 -2.164840698242187500e-03 -1.997070312500000000e-01 -3.382770373410375325e-03 1.765315756500271394e-01 9.842891646579877696e-01
-2.546310424804687500e-03 -2.164840698242187500e-03 -1.997070312500000000e-01 -3.645738740942059048e-04 1.914294463158316695e-01 9.815063087770268258e-01
-1.607894897460937500e-03 -2.164840698242187500e-03 -1.997070312500000000e-01 -2.284206208352879488e-04 1.914300204773551062e-01 9.815062379241710211e-01
-6.704330444335937500e-04 -2.164840698242187500e-03 -1.997070312500000000e-01 3.493130538520904105e-02 1.777584321971017456e-01 9.834539865631303224e-01
2.675056457519531250e-04 -2.164840698242187500e-03 -1.997070312500000000e-01 1.630019195955308420e-01 2.300489131914950913e-01 9.594310145849904714e-01
1.205444335937500000e-03 -2.164840698242187500e-03 -1.997070312500000000e-01 2.202381745920060085e-01 1.255653773174069676e-01 9.673305962655778245e-01
2.153396606445312500e-03 -2.174377441406250000e-03 -2.006835937500000000e-01 2.588515341403705428e-01 1.857798503995473638e-01 9.478827619799288229e-01
3.097534179687500000e-03 -2.174377441406250000e-03 -2.006835937500000000e-01 2.422905554363899983e-01 2.346519994358767514e-01 9.413998756676520419e-01
4.039764404296875000e-03 -2.174377441406250000e-03 -2.006835937500000000e-01 2.598069204211478356e-01 2.635588760625337534e-01 9.289978917898218391e-01
4.981994628906250000e-03 -2.174377441406250000e-03 -2.006835937500000000e-01 1.660461778192186544e-01 3.255294388230893787e-01 9.308379296586237750e-01
5.954742431640625000e-03 -2.185821533203125000e-03 -2.017822265625000000e-01 5.244569573589469291e-02 3.067526480919547938e-01 9.503432337252426532e-01
6.900787353515625000e-03 -2.185821533203125000e-03 -2.017822265625000000e-01 -1.544702726491094594e-02 2.733218772984529754e-01 9.617985967647939560e-01
7.812500000000000000e-03 -2.174377441406250000e-03 -2.006835937500000000e-01 2.104683496034939066e-02 1.772171065858111627e-01 9.839467098738148287e-01
8.750915527343750000e-03 -2.174377441406250000e-03 -2.006835937500000000e-01 1.440758203432352183e-02 -7.965447648513274137e-02 -9.967184085567016849e-01
-1.204681396484375000e-02 -3.133773803710937500e-03 -2.017822265625000000e-01 2.347170413412800194e-01 7.895478201409328323e-02 -9.688519251676710464e-01
-1.103973388671875000e-02 -3.118515014648437500e-03 -2.006835937500000000e-01 2.629727078629738868e-01 3.963863217210666923e-02 -9.639886585218415682e-01
-1.010131835937500000e-02 -3.118515014648437500e-03 -2.006835937500000000e-01 -2.766902241914698801e-01 -4.054856194062106400e-02 9.601032933811973757e-01
-9.155273437500000000e-03 -3.118515014648437500e-03 -2.006835937500000000e-01 -1.938927995207020971e-01 8.990844899384984462e-03 9.809815222531054202e-01
-8.216857910156250000e-03 -3.118515014648437500e-03 -2.006835937500000000e-01 -1.875319100348070700e-01 2.952463867286456156e-02 9.818146863995942386e-01
-7.236480712890625000e-03 -3.101348876953125000e-03 -1.997070312500000000e-01 -2.585394622464371461e-01 2.894865460782047525e-02 9.655668396634797812e-01
-6.298065185546875000e-03 -3.101348876953125000e-03 -1.997070312500000000e-01 -2.156442762877299468e-01 2.950630572512580319e-02 9.760260877798281332e-01
-5.359649658203125000e-03 -3.101348876953125000e-03 -1.997070312500000000e-01 -9.684510764004344852e-02 3.027877877832457418e-02 9.948387913033356345e-01
-4.421234130859375000e-03 -3.101348876953125000e-03 -1.997070312500000000e-01 -2.233787776579538795e-02 3.785808875814673097e-02 9.990334250326665666e-01
-3.484725952148437500e-03 -3.101348876953125000e-03 -1.997070312500000000e-01 0.000000000000000000e+00 0.000000000000000000e+00 1.000000000000000000e+00
-2.546310424804687500e-03 -3.101348876953125000e-03 -1.997070312500000000e-01 -3.912441034341037131e-14 2.289638051865127329e-15 1.000000000000000000e+00
-1.607894897460937500e-03 -3.101348876953125000e-03 -1.997070312500000000e-01 1.975152416424609883e-02 -3.985388522592558935e-02 9.990102827927187512e-01
-6.704330444335937500e-04 -3.101348876953125000e-03 -1.997070312500000000e-01 7.389061591036330534e-02 9.299481404607840354e-03 9.972229923773280325e-01
2.675056457519531250e-04 -3.101348876953125000e-03 -1.997070312500000000e-01 1.869963213906831734e-01 -1.106045032711013313e-03 9.823599912713963933e-01
1.205444335937500000e-03 -3.101348876953125000e-03 -1.997070312500000000e-01 2.314589746331745523e-01 -6.141140518767349704e-02 9.709044146437045830e-01
2.143859863281250000e-03 -3.101348876953125000e-03 -1.997070312500000000e-01 2.234893752589134086e-01 -2.867738645686943033e-02 9.742844074767819107e-01
3.097534179687500000e-03 -3.118515014648437500e-03 -2.006835937500000000e-01 1.877930513337353058e-01 7.729749630707917485e-02 9.791623292056441663e-01
4.039764404296875000e-03 -3.118515014648437500e-03 -2.006835937500000000e-01 2.753552088188638280e-01 9.295846728566542483e-02 9.568376206735497158e-01
4.981994628906250000e-03 -3.118515014648437500e-03 -2.006835937500000000e-01 1.441842758947937397e-01 1.181016649121692241e-01 9.824779342711303931e-01
5.924224853515625000e-03 -3.118515014648437500e-03 -2.006835937500000000e-01 6.234393615367626179e-02 1.326252235828237203e-01 9.892036108377649795e-01
6.900787353515625000e-03 -3.133773803710937500e-03 -2.017822265625000000e-01 -2.119608531446368418e-02 5.174817473060444595e-02 9.984352018931388351e-01
7.812500000000000000e-03 -3.118515014648437500e-03 -2.006835937500000000e-01 2.084263706487697598e-02 -3.494094185372409456e-02 9.991720147514923100e-01
8.750915527343750000e-03 -3.118515014648437500e-03 -2.006835937500000000e-01 -1.455078931825062481e-03 -6.788536321084505387e-02 9.976920668257485136e-01
9.696960449218750000e-03 -3.118515014648437500e-03 -2.006835937500000000e-01 1.356414374289271196e-01 1.087540334377911644e-01 -9.847710194066567890e-01
-1.299285888671875000e-02 -4.081726074218750000e-03 -2.017822265625000000e-01 2.622740570549336736e-01 1.142735058898049355e-01 -9.582034673531490965e-01
-1.204681396484375000e-02 -4.081726074218750000e-03 -2.017822265625000000e-01 2.604669077132706345e-01 1.000612091870987513e-01 -9.602836791294031560e-01
-1.103973388671875000e-02 -4.058837890625000000e-03 -2.006835937500000000e-01 2.403185934174952298e-01 1.123836941980613374e-01 -9.641664166191605823e-01
-1.010131835937500000e-02 -4.058837890625000000e-03 -2.006835937500000000e-01 -2.489682432888202790e-01 -9.614952549069194498e-02 9.637271826516017326e-01
-9.155273437500000000e-03 -4.058837890625000000e-03 -2.006835937500000000e-01 -1.924340983678862749e-01 -6.676347006842278664e-02 9.790361366414220834e-01
-8.216857910156250000e-03 -4.058837890625000000e-03 -2.006835937500000000e-01 -1.857823749144464076e-01 -7.563237536000572137e-02 9.796757897225750744e-01
-7.236480712890625000e-03 -4.039764404296875000e-03 -1.997070312500000000e-01 -2.350807183732729899e-01 -1.043875667439296551e-01 9.663541233721659740e-01
-6.298065185546875000e-03 -4.039764404296875000e-03 -1.997070312500000000e-01 -1.799588785387840617e-01 -1.254046122815895559e-01 9.756477260023554976e-01
-5.359649658203125000e-03 -4.039764404296875000e-03 -1.997070312500000000e-01 -5.453190970722378988e-02 -1.868786879755248986e-01 9.808683024770601389e-01
-4.421234130859375000e-03 -4.039764404296875000e-03 -1.997070312500000000e-01 -8.213113864862974173e-04 -1.647048248639747525e-01 9.863425602264833669e-01
-3.484725952148437500e-03 -4.039764404296875000e-03 -1.997070312500000000e-01 -3.443921566639488330e-03 -1.766003205807444576e-01 9.842766207601505446e-01
-2.546310424804687500e-03 -4.039764404296875000e-03 -1.997070312500000000e-01 -4.895445274401046811e-04 -1.647069090188571228e-01 9.863424326609949722e-01
-1.607894897460937500e-03 -4.039764404296875000e-03 -1.997070312500000000e-01 2.994925752625425888e-02 -1.828369508345053518e-01 9.826869752790899915e-01
-6.704330444335937500e-04 -4.039764404296875000e-03 -1.997070312500000000e-01 5.394851525432232953e-02 -2.041091100153596405e-01 9.774604999234455249e-01
2.675056457519531250e-04 -4.039764404296875000e-03 -1.997070312500000000e-01 1.418637144985877285e-01 -1.966459640805931497e-01 9.701572302052267061e-01
1.205444335937500000e-03 -4.039764404296875000e-03 -1.997070312500000000e-01 2.081609228515201859e-01 -1.449059763393307498e-01 9.673010328841528116e-01
2.153396606445312500e-03 -4.058837890625000000e-03 -2.006835937500000000e-01 2.106374468108165032e-01 -1.457980454328305364e-01 9.666306409115048570e-01
3.097534179687500000e-03 -4.058837890625000000e-03 -2.006835937500000000e-01 1.497284102760100821e-01 -1.736887529777337846e-01 9.733517453856331825e-01
4.039764404296875000e-03 -4.058837890625000000e-03 -2.006835937500000000e-01 2.275677445543696498e-01 -1.116344155712122310e-01 9.673420692281046174e-01
4.981994628906250000e-03 -4.058837890625000000e-03 -2.006835937500000000e-01 1.553485601781162961e-01 -1.292961778698906439e-01 9.793616917353996643e-01
5.924224853515625000e-03 -4.058837890625000000e-03 -2.006835937500000000e-01 1.014312274274183218e-01 -2.128584753587843270e-01 9.718039800137170392e-01
6.900787353515625000e-03 -4.081726074218750000e-03 -2.017822265625000000e-01 2.729842125868623542e-02 -1.372165741281142770e-01 9.901648387926764716e-01
7.812500000000000000e-03 -4.058837890625000000e-03 -2.006835937500000000e-01 5.308145215841743141e-03 -1.327598319814233541e-01 9.911340225250225844e-01
8.750915527343750000e-03 -4.058837890625000000e-03 -2.006835937500000000e-01 1.208454049745171371e-01 1.520020827988035894e-01 -9.809647062567392606e-01
9.696960449218750000e-03 -4.058837890625000000e-03 -2.006835937500000000e-01 1.265736848198734943e-01 1.572237234307661269e-01 -9.794180941261425577e-01
-1.299285888671875000e-02 -5.027770996093750000e-03 -2.017822265625000000e-01 2.554373802999865828e-01 1.335161734098536668e-01 -9.575621004318568552e-01
-1.204681396484375000e-02 -5.027770996093750000e-03 -2.017822265625000000e-01 -2.255923731001238663e-01 -1.626880838908102700e-01 9.605418619503219846e-01
-1.103973388671875000e-02 -5.001068115234375000e-03 -2.006835937500000000e-01 -2.420585016222421282e-01 -1.674485666990095933e-01 9.557032276302316331e-01
-1.010131835937500000e-02 -5.001068115234375000e-03 -2.006835937500000000e-01 -2.277593624971735453e-01 -1.575071035669909358e-01 9.608939510272808127e-01
-9.155273437500000000e-03 -5.001068115234375000e-03 -2.006835937500000000e-01 -2.089676298555149803e-01 -1.677669948720920401e-01 9.634244989121648617e-01
-8.216857910156250000e-03 -5.001068115234375000e-03 -2.006835937500000000e-01 -1.790175167870323159e-01 -1.751585259053131671e-01 9.681282040546501655e-01
-7.270812988281250000e-03 -5.001068115234375000e-03 -2.006835937500000000e-01 -1.703066749715897998e-01 -2.003556676382995949e-01 9.648073605157314603e-01
-6.298065185546875000e-03 -4.978179931640625000e-03 -1.997070312500000000e-01 -1.437001342004155802e-01 -2.269562005986094089e-01 9.632451164893732765e-01
-5.359649658203125000e-03 -4.978179931640625000e-03 -1.997070312500000000e-01 -5.948560055866361496e-02 -2.555049117994978025e-01 9.649760118119548036e-01
-4.421234130859375000e-03 -4.978179931640625000e-03 -1.997070312500000000e-01 -2.675299337377252951e-02 -2.525555531804719589e-01 9.672124740217367123e-01
-3.484725952148437500e-03 -4.978179931640625000e-03 -1.997070312500000000e-01 -7.606538075307385906e-04 -2.654920808770247498e-01 9.641127405015310625e-01
-2.546310424804687500e-03 -4.978179931640625000e-03 -1.997070312500000000e-01 2.566326794289499821e-02 -2.528225307227308649e-01 9.671722517925361862e-01
-1.607894897460937500e-03 -4.978179931640625000e-03 -1.997070312500000000e-01 4.526766535337827663e-02 -2.617869978497162076e-01 9.640634866181205798e-01
-6.704330444335937500e-04 -4.978179931640625000e-03 -1.997070312500000000e-01 1.125024683417779198e-01 -3.063094977420928733e-01 9.452606445896253318e-01
2.689361572265625000e-04 -5.001068115234375000e-03 -2.006835937500000000e-01 1.552155739944908186e-01 -3.836539922965349070e-01 9.103393541885854701e-01
1.211166381835937500e-03 -5.001068115234375000e-03 -2.006835937500000000e-01 2.028985768640435283e-01 -3.712098671244286607e-01 9.061100386023818176e-01
2.153396606445312500e-03 -5.001068115234375000e-03 -2.006835937500000000e-01 1.559188140445283699e-01 -3.456398252631778245e-01 9.253228812792795299e-01
3.097534179687500000e-03 -5.001068115234375000e-03 -2.006835937500000000e-01 1.376166681158779714e-01 -3.036036223364333431e-01 9.428077710545669232e-01
4.039764404296875000e-03 -5.001068115234375000e-03 -2.006835937500000000e-01 1.467438994337294800e-01 -2.833358377119049032e-01 9.477272978273215687e-01
4.981994628906250000e-03 -5.001068115234375000e-03 -2.006835937500000000e-01 1.762307731335773786e-01 -2.454391781094191205e-01 9.532587919603545679e-01
5.954742431640625000e-03 -5.027770996093750000e-03 -2.017822265625000000e-01 1.077305186232254963e-01 -1.936855170029365414e-01 9.751307891049673104e-01
6.900787353515625000e-03 -5.027770996093750000e-03 -2.017822265625000000e-01 3.459110121216067701e-02 -1.922326187394828578e-01 9.807395556463963660e-01
7.850646972656250000e-03 -5.027770996093750000e-03 -2.017822265625000000e-01 -1.565048570700688230e-02 -2.632845464281268755e-01 9.645912657230886200e-01
8.796691894531250000e-03 -5.027770996093750000e-03 -2.017822265625000000e-01 9.050002364789783149e-02 2.606508265767046306e-01 -9.611820287149623887e-01
9.742736816406250000e-03 -5.027770996093750000e-03 -2.017822265625000000e-01 1.464428719098293530e-01 2.821461709794366723e-01 -9.481286956254643128e-01
-1.393890380859375000e-02 -5.973815917968750000e-03 -2.017822265625000000e-01 2.193977207178730848e-01 1.575680091803471627e-01 -9.628275871757855375e-01
-1.299285888671875000e-02 -5.973815917968750000e-03 -2.017822265625000000e-01 -2.243126935539768718e-01 -1.548827494334359955e-01 9.621305261961597965e-01
-1.204681396484375000e-02 -5.973815917968750000e-03 -2.017822265625000000e-01 -2.052682331235216873e-01 -1.640435621423975421e-01 9.648599184285668873e-01
-1.110076904296875000e-02 -5.973815917968750000e-03 -2.017822265625000000e-01 -2.042747288582993925e-01 -1.544819095890151150e-01 9.666473890512504719e-01
-1.010131835937500000e-02 -5.947113037109375000e-03 -2.006835937500000000e-01 -2.087808725459323889e-01 -2.294031526410421629e-01 9.506759389073176081e-01
-9.155273437500000000e-03 -5.947113037109375000e-03 -2.006835937500000000e-01 -1.595439346359973365e-01 -2.648598284463871688e-01 9.509968476268546578e-01
-8.216857910156250000e-03 -5.947113037109375000e-03 -2.006835937500000000e-01 -1.529217610779392833e-01 -3.091794974773005578e-01 9.386282402146791659e-01
-7.270812988281250000e-03 -5.947113037109375000e-03 -2.006835937500000000e-01 -1.325209195799082751e-01 -3.611720753865351186e-01 9.230346352302705171e-01
-6.328582763671875000e-03 -5.947113037109375000e-03 -2.006835937500000000e-01 -8.621480244932583359e-02 -4.101165480478659031e-01 9.079490210666709693e-01
-5.386352539062500000e-03 -5.947113037109375000e-03 -2.006835937500000000e-01 -3.885875257041277592e-02 -4.566166632563836147e-01 8.888145026861780096e-01
-4.444122314453125000e-03 -5.947113037109375000e-03 -2.006835937500000000e-01 -2.046183695465676744e-02 -4.693494519333995529e-01 8.827753990672024820e-01
-3.501892089843750000e-03 -5.947113037109375000e-03 -2.006835937500000000e-01 -3.632644031039510674e-04 -4.515019319077560045e-01 8.922700675930674841e-01
-2.559661865234375000e-03 -5.947113037109375000e-03 -2.006835937500000000e-01 3.219705482032624716e-02 -4.521754397920729196e-01 8.913476994471586368e-01
-1.616477966308593750e-03 -5.947113037109375000e-03 -2.006835937500000000e-01 7.870115520411333221e-02 -4.589615893939512081e-01 8.849634950835634228e-01
-6.737709045410156250e-04 -5.947113037109375000e-03 -2.006835937500000000e-01 1.095779475994982377e-01 -4.689091018921157095e-01 8.764228018271837950e-01
2.689361572265625000e-04 -5.947113037109375000e-03 -2.006835937500000000e-01 1.817002136723925576e-01 -4.876620527992099885e-01 8.539149574817549437e-01
1.211166381835937500e-03 -5.947113037109375000e-03 -2.006835937500000000e-01 2.001509550120342540e-01 -5.006691417805999578e-01 8.421816939808465241e-01
2.153396606445312500e-03 -5.947113037109375000e-03 -2.006835937500000000e-01 1.678451056404340613e-01 -4.854014012810566325e-01 8.580288457545808267e-01
3.112792968750000000e-03 -5.973815917968750000e-03 -2.017822265625000000e-01 1.006298997867216549e-01 -4.681343076811259052e-01 8.779088182954009056e-01
4.058837890625000000e-03 -5.973815917968750000e-03 -2.017822265625000000e-01 9.969197584526830191e-02 -4.669026692579635318e-01 8.786713876028142689e-01
5.004882812500000000e-03 -5.973815917968750000e-03 -2.017822265625000000e-01 1.090155542609748396e-01 -4.213168507922845918e-01 9.003375590119764293e-01
5.954742431640625000e-03 -5.973815917968750000e-03 -2.017822265625000000e-01 6.907680586490470842e-02 -3.587187350927779628e-01 9.308862787606977385e-01
6.900787353515625000e-03 -5.973815917968750000e-03 -2.017822265625000000e-01 2.745355193585195808e-02 -3.418554990004749050e-01 9.393514359861497853e-01
