-3.799438476562500000e-03 3.341674804687500000e-02 -2.177734375000000000e-01 -4.904295894094096858e-02 5.485163288834553619e-01 8.347003205501565271e-01
-2.777099609375000000e-03 3.341674804687500000e-02 -2.177734375000000000e-01 -1.525205058414789636e-02 5.168006587491985604e-01 8.559698908661290684e-01
-1.753807067871093750e-03 3.341674804687500000e-02 -2.177734375000000000e-01 -4.618859692314350451e-02 -4.811119890186245085e-01 -8.754415271946003330e-01
-7.309913635253906250e-04 3.341674804687500000e-02 -2.177734375000000000e-01 -1.030034087018566330e-01 -4.503964711159342271e-01 -8.868671358225606038e-01
2.918243408203125000e-04 3.341674804687500000e-02 -2.177734375000000000e-01 1.135008525430800802e-01 4.625772705088095349e-01 8.792837001108422257e-01
-2.200317382812500000e-02 3.210449218750000000e-02 -2.158203125000000000e-01 -9.471196533738360235e-02 -5.738321008614635232e-01 -8.134779429356702174e-01
-2.108764648437500000e-02 3.225708007812500000e-02 -2.167968750000000000e-01 8.929596663707170534e-02 5.645620809511631144e-01 8.205460907800627979e-01
-2.006530761718750000e-02 3.225708007812500000e-02 -2.167968750000000000e-01 8.612533079124463919e-02 5.586867021189257931e-01 8.248949001367249512e-01
-1.905822753906250000e-02 3.225708007812500000e-02 -2.167968750000000000e-01 8.640830228805791713e-02 5.846545254974464534e-01 8.066676460048781694e-01
-1.803588867187500000e-02 3.225708007812500000e-02 -2.167968750000000000e-01 3.448098734869441823e-02 5.822922175830314018e-01 8.122480131423496230e-01
-1.701354980468750000e-02 3.225708007812500000e-02 -2.167968750000000000e-01 4.419185537022552596e-02 6.440292696638695302e-01 7.637233659743295489e-01
-1.599121093750000000e-02 3.225708007812500000e-02 -2.167968750000000000e-01 5.266694691811987100e-02 6.524054693520795478e-01 7.560378934033773479e-01
-1.491546630859375000e-02 3.210449218750000000e-02 -2.158203125000000000e-01 4.695538280688804633e-02 -5.665022109089992153e-01 -8.227213605229138915e-01
-1.390075683593750000e-02 3.210449218750000000e-02 -2.158203125000000000e-01 5.487399610662500871e-02 -5.671567609350192107e-01 -8.217798081463109083e-01
-1.187133789062500000e-02 3.210449218750000000e-02 -2.158203125000000000e-01 -3.714780107176865465e-02 -4.617185047217441940e-01 -8.862483079098367744e-01
-1.085662841796875000e-02 3.210449218750000000e-02 -2.158203125000000000e-01 -1.088670250119218863e-01 -4.682663617072260198e-01 -8.768549397468951012e-01
-9.841918945312500000e-03 3.210449218750000000e-02 -2.158203125000000000e-01 -1.487183630840687998e-01 -5.380935270395683645e-01 -8.296615000346301283e-01
-8.872985839843750000e-03 3.225708007812500000e-02 -2.167968750000000000e-01 -1.491278125457227988e-01 -6.256263607480375688e-01 -7.657366076285597734e-01
-7.850646972656250000e-03 3.225708007812500000e-02 -2.167968750000000000e-01 1.459733820134113402e-01 6.346193651861719021e-01 7.589137191237663727e-01
-6.866455078125000000e-03 3.240966796875000000e-02 -2.177734375000000000e-01 3.828450676545147591e-02 6.384675986186070240e-01 7.686959230124195130e-01
-5.844116210937500000e-03 3.240966796875000000e-02 -2.177734375000000000e-01 6.870908802746107658e-03 6.124453422273790082e-01 7.904830759707719423e-01
-4.821777343750000000e-03 3.240966796875000000e-02 -2.177734375000000000e-01 -5.313398566786387348e-03 5.798279631832208292e-01 8.147216094510246753e-01
-3.799438476562500000e-03 3.240966796875000000e-02 -2.177734375000000000e-01 -3.228240977964771941e-02 5.405249638100014797e-01 8.407083974345775923e-01
-2.777099609375000000e-03 3.240966796875000000e-02 -2.177734375000000000e-01 1.059688342207640993e-02 5.061657418852161250e-01 8.623711195323784384e-01
-1.753807067871093750e-03 3.240966796875000000e-02 -2.177734375000000000e-01 1.132544188478347980e-01 4.765720908722290705e-01 8.718098868521225731e-01
-7.309913635253906250e-04 3.240966796875000000e-02 -2.177734375000000000e-01 1.486495537997736816e-01 4.591378356603083577e-01 8.758400299257255162e-01
2.918243408203125000e-04 3.240966796875000000e-02 -2.177734375000000000e-01 -1.620161818232629947e-01 -4.540781555188118657e-01 -8.761071769527088993e-01
1.320838928222656250e-03 3.256225585937500000e-02 -2.187500000000000000e-01 -1.620161818232629947e-01 -4.540781555188118657e-01 -8.761071769527088993e-01
-2.290344238281250000e-02 3.096008300781250000e-02 -2.147216796875000000e-01 -1.345885138674481341e-01 -5.623278400654661002e-01 -8.158880635370636680e-01
-2.200317382812500000e-02 3.109741210937500000e-02 -2.158203125000000000e-01 -1.318170174521328675e-01 -5.628917700913814715e-01 -8.159516707951613990e-01
-2.099609375000000000e-02 3.109741210937500000e-02 -2.158203125000000000e-01 -1.063781389815913331e-01 -5.703650591839410922e-01 -8.144736894516070302e-01
-1.997375488281250000e-02 3.109741210937500000e-02 -2.158203125000000000e-01 7.874974372303768233e-02 5.821107078757586928e-01 8.092870946950402322e-01
-1.896667480468750000e-02 3.109741210937500000e-02 -2.158203125000000000e-01 4.990467087374850924e-02 5.826485846553270953e-01 8.111905760202881011e-01
-1.794433593750000000e-02 3.109741210937500000e-02 -2.158203125000000000e-01 4.957076468891034437e-04 5.815301945427033825e-01 8.135246690230446553e-01
-1.693725585937500000e-02 3.109741210937500000e-02 -2.158203125000000000e-01 -4.155963872803505876e-02 5.536302523345223436e-01 8.317249185450730220e-01
-1.591491699218750000e-02 3.109741210937500000e-02 -2.158203125000000000e-01 -3.028344645626427842e-02 5.748867679151765664e-01 8.176723775123948545e-01
-1.491546630859375000e-02 3.109741210937500000e-02 -2.158203125000000000e-01 -3.635886601412051389e-02 5.103458634521783610e-01 8.592002866150695306e-01
-1.390075683593750000e-02 3.109741210937500000e-02 -2.158203125000000000e-01 3.266060070956978284e-02 -4.795289749102810695e-01 -8.769180391477786607e-01
-1.288604736328125000e-02 3.109741210937500000e-02 -2.158203125000000000e-01 1.830348070255522624e-03 -4.575613918222529164e-01 -8.891761482066555811e-01
-1.187133789062500000e-02 3.109741210937500000e-02 -2.158203125000000000e-01 -4.942489094473706546e-02 -4.518528913677887782e-01 -8.907222601449176214e-01
-1.085662841796875000e-02 3.109741210937500000e-02 -2.158203125000000000e-01 7.753077451679325771e-02 4.726833025604826322e-01 8.778151710259632923e-01
-9.841918945312500000e-03 3.109741210937500000e-02 -2.158203125000000000e-01 1.189997628905222898e-01 5.175641648333128009e-01 8.473289749043135810e-01
-8.827209472656250000e-03 3.109741210937500000e-02 -2.158203125000000000e-01 1.488953717077179384e-01 5.292291772121855420e-01 8.353123046330237500e-01
-7.812500000000000000e-03 3.109741210937500000e-02 -2.158203125000000000e-01 1.583744058666849974e-01 5.442204268971363446e-01 8.238577999353244863e-01
-6.835937500000000000e-03 3.125000000000000000e-02 -2.167968750000000000e-01 1.136369712439968399e-01 5.917803942890447200e-01 7.980492489198858230e-01
-5.817413330078125000e-03 3.125000000000000000e-02 -2.167968750000000000e-01 8.354323957047249394e-02 6.008789079687519852e-01 7.949623041882871721e-01
-4.798889160156250000e-03 3.125000000000000000e-02 -2.167968750000000000e-01 7.369863839384480086e-02 5.698394004478825048e-01 8.184446031321186421e-01
-3.782272338867187500e-03 3.125000000000000000e-02 -2.167968750000000000e-01 3.939410048557819705e-02 5.322677584965138653e-01 8.456589963525658060e-01
-2.763748168945312500e-03 3.125000000000000000e-02 -2.167968750000000000e-01 6.582801666016058206e-02 4.731601297686548468e-01 8.785136104921194011e-01
-1.745223999023437500e-03 3.125000000000000000e-02 -2.167968750000000000e-01 1.333176477813267646e-01 4.309018769045335762e-01 8.924964858587424166e-01
-7.276535034179687500e-04 3.125000000000000000e-02 -2.167968750000000000e-01 1.774041475778930232e-01 4.227891181044849400e-01 8.886940587370847355e-01
2.918243408203125000e-04 3.137207031250000000e-02 -2.177734375000000000e-01 -1.685706798319564770e-01 -4.394030688783135408e-01 -8.823314960723730449e-01
1.314163208007812500e-03 3.137207031250000000e-02 -2.177734375000000000e-01 -1.772723594478114451e-01 -4.212001275270286227e-01 -8.894745432821673514e-01
-2.380371093750000000e-02 2.981567382812500000e-02 -2.137451171875000000e-01 -7.289834153804272687e-02 -5.405641416517807940e-01 -8.381385568993209301e-01
-2.290344238281250000e-02 2.995300292968750000e-02 -2.147216796875000000e-01 -1.220860465111837934e-01 -5.579367947047731979e-01 -8.208541468262392504e-01
-2.189636230468750000e-02 2.995300292968750000e-02 -2.147216796875000000e-01 -1.401387013980424368e-01 -5.531405482336477775e-01 -8.212165842640116731e-01
-2.088928222656250000e-02 2.995300292968750000e-02 -2.147216796875000000e-01 1.266132721027127817e-01 5.752957132190315015e-01 8.080865805588224315e-01
-1.988220214843750000e-02 2.995300292968750000e-02 -2.147216796875000000e-01 9.157175137687176281e-02 5.783154727892533264e-01 8.106576517139123528e-01
-1.887512207031250000e-02 2.995300292968750000e-02 -2.147216796875000000e-01 4.571937812116744215e-02 5.714539559229437904e-01 8.193595759641989495e-01
-1.786804199218750000e-02 2.995300292968750000e-02 -2.147216796875000000e-01 3.888280889230974480e-02 5.630517601484404944e-01 8.255064158238789584e-01
-1.686096191406250000e-02 2.995300292968750000e-02 -2.147216796875000000e-01 1.143201869600181039e-02 5.375697162573214172e-01 8.431418084234449939e-01
-1.585388183593750000e-02 2.995300292968750000e-02 -2.147216796875000000e-01 -1.714588285285084321e-02 5.063918146588068936e-01 8.621330226523961082e-01
-1.483917236328125000e-02 2.995300292968750000e-02 -2.147216796875000000e-01 -6.826988909376279120e-03 4.949760657534129082e-01 8.688797883215515494e-01
-1.383209228515625000e-02 2.995300292968750000e-02 -2.147216796875000000e-01 -1.284885981576899990e-02 4.821994453632956201e-01 8.759672377964627943e-01
-1.282501220703125000e-02 2.995300292968750000e-02 -2.147216796875000000e-01 2.571047156429234759e-02 4.613158382348612196e-01 8.868633880398992808e-01
-1.181793212890625000e-02 2.995300292968750000e-02 -2.147216796875000000e-01 4.069841879095089515e-02 4.629424097538438754e-01 8.854535357426839282e-01
-1.080322265625000000e-02 2.995300292968750000e-02 -2.147216796875000000e-01 5.870149227489754318e-02 4.677002760866658115e-01 8.819357043192869172e-01
-9.841918945312500000e-03 3.009033203125000000e-02 -2.158203125000000000e-01 1.032085295750159448e-01 4.978161489588117106e-01 8.611196672116955275e-01
-8.827209472656250000e-03 3.009033203125000000e-02 -2.158203125000000000e-01 1.282177421332780509e-01 5.399173242650056048e-01 8.318951217315564417e-01
-7.812500000000000000e-03 3.009033203125000000e-02 -2.158203125000000000e-01 1.467212374065333946e-01 5.511903153908188635e-01 8.213781800810546763e-01
-6.805419921875000000e-03 3.009033203125000000e-02 -2.158203125000000000e-01 1.198961593908446227e-01 5.607143290826595017e-01 8.192828279200707886e-01
-5.790710449218750000e-03 3.009033203125000000e-02 -2.158203125000000000e-01 1.047433180083897908e-01 5.561372301939413454e-01 8.244635944205205291e-01
-4.776000976562500000e-03 3.009033203125000000e-02 -2.158203125000000000e-01 9.718052771974228232e-02 5.516984770145457739e-01 8.283626835462489790e-01
-3.765106201171875000e-03 3.009033203125000000e-02 -2.158203125000000000e-01 8.013402594993640493e-02 5.518046786517384339e-01 8.301145309552812046e-01
-2.750396728515625000e-03 3.009033203125000000e-02 -2.158203125000000000e-01 1.321537885507804155e-01 5.098778181045848790e-01 8.500352856067703300e-01
-1.745223999023437500e-03 3.022766113281250000e-02 -2.167968750000000000e-01 1.596678617816975898e-01 4.780671173475650737e-01 8.636886043158438220e-01
-7.276535034179687500e-04 3.022766113281250000e-02 -2.167968750000000000e-01 2.055961552679281823e-01 4.214399568563998999e-01 8.832432188836333298e-01
2.903938293457031250e-04 3.022766113281250000e-02 -2.167968750000000000e-01 2.186796253358046227e-01 4.342091209830153398e-01 8.738659283426430946e-01
1.314163208007812500e-03 3.036499023437500000e-02 -2.177734375000000000e-01 -2.167617428392798196e-01 -4.345177901058567271e-01 -8.741902750104241226e-01
-2.380371093750000000e-02 2.880859375000000000e-02 -2.137451171875000000e-01 -6.220328036664307669e-02 -5.342234983250676583e-01 -8.430516032538907245e-01
-2.279663085937500000e-02 2.880859375000000000e-02 -2.137451171875000000e-01 -9.970440558024122601e-02 -5.335151077082833648e-01 -8.398932440226615226e-01
-2.180480957031250000e-02 2.880859375000000000e-02 -2.137451171875000000e-01 1.365381432603324230e-01 5.433862580514160490e-01 8.283047204959662624e-01
-2.079772949218750000e-02 2.880859375000000000e-02 -2.137451171875000000e-01 1.163392794787228013e-01 5.437745891358183314e-01 8.311283705063517990e-01
-1.979064941406250000e-02 2.880859375000000000e-02 -2.137451171875000000e-01 8.404242837955339107e-02 5.544650474142459595e-01 8.279525236557866430e-01
-1.887512207031250000e-02 2.894592285156250000e-02 -2.147216796875000000e-01 6.685219537826647684e-02 5.498932341222718678e-01 8.325552324258458370e-01
-1.786804199218750000e-02 2.894592285156250000e-02 -2.147216796875000000e-01 3.899364294016624544e-02 5.391588531584391442e-01 8.413009133901683256e-01
-1.686096191406250000e-02 2.894592285156250000e-02 -2.147216796875000000e-01 2.438612453281985976e-02 5.388799698947872585e-01 8.420295095639244165e-01
-1.585388183593750000e-02 2.894592285156250000e-02 -2.147216796875000000e-01 -5.205402191530659854e-03 5.174713595350920459e-01 8.556846941770828163e-01
-1.483917236328125000e-02 2.894592285156250000e-02 -2.147216796875000000e-01 -8.196523265083254005e-04 5.174551192962992818e-01 8.557099553494258437e-01
-1.383209228515625000e-02 2.894592285156250000e-02 -2.147216796875000000e-01 -7.721046001326165812e-04 5.174583479248671125e-01 8.557080471851093995e-01
-1.282501220703125000e-02 2.894592285156250000e-02 -2.147216796875000000e-01 2.111115454259336610e-02 5.276785954639034992e-01 8.491817349914686508e-01
-1.181793212890625000e-02 2.894592285156250000e-02 -2.147216796875000000e-01 5.923788904574439629e-02 5.246919287183828828e-01 8.492286220089309001e-01
-1.080322265625000000e-02 2.894592285156250000e-02 -2.147216796875000000e-01 7.866585046204077614e-02 5.124901330579856307e-01 8.550821875640329806e-01
-9.796142578125000000e-03 2.894592285156250000e-02 -2.147216796875000000e-01 8.405604577003070177e-02 4.934083997677362055e-01 8.657267075747104856e-01
-8.789062500000000000e-03 2.894592285156250000e-02 -2.147216796875000000e-01 9.833852040313502407e-02 4.812759815783680395e-01 8.710355704336650851e-01
-7.781982421875000000e-03 2.894592285156250000e-02 -2.147216796875000000e-01 1.121944539669194607e-01 5.180297950551497888e-01 8.479726032922197954e-01
-6.771087646484375000e-03 2.894592285156250000e-02 -2.147216796875000000e-01 1.045701418139134281e-01 5.412171837823280818e-01 8.343554670640948023e-01
-5.764007568359375000e-03 2.894592285156250000e-02 -2.147216796875000000e-01 9.928143824504512271e-02 5.514995242535574160e-01 8.282460206774887590e-01
-4.776000976562500000e-03 2.908325195312500000e-02 -2.158203125000000000e-01 9.844339322786976876e-02 5.457585373554808550e-01 8.321397221821519308e-01
-3.765106201171875000e-03 2.908325195312500000e-02 -2.158203125000000000e-01 1.158346957909963393e-01 5.393395491053168955e-01 8.340834334896484181e-01
-2.750396728515625000e-03 2.908325195312500000e-02 -2.158203125000000000e-01 1.523303225642311243e-01 5.153112310029882570e-01 8.433562758583481589e-01
-1.737594604492187500e-03 2.908325195312500000e-02 -2.158203125000000000e-01 1.979006615542889536e-01 4.840573227078859841e-01 8.523636761906552284e-01
-7.243156433105468750e-04 2.908325195312500000e-02 -2.158203125000000000e-01 2.316100518426199018e-01 4.606750789053107864e-01 8.568169323496382939e-01
2.903938293457031250e-04 2.920532226562500000e-02 -2.167968750000000000e-01 -2.345749647028482765e-01 -4.327667555086309181e-01 -8.704524807599727243e-01
-2.569580078125000000e-02 2.766418457031250000e-02 -2.127685546875000000e-01 -3.456092400471533210e-02 -5.233379892025660229e-01 -8.514240374744861395e-01
-2.468872070312500000e-02 2.766418457031250000e-02 -2.127685546875000000e-01 -3.456092400471533210e-02 -5.233379892025660229e-01 -8.514240374744861395e-01
-2.369689941406250000e-02 2.766418457031250000e-02 -2.127685546875000000e-01 3.769455510588164832e-02 5.177431793095971235e-01 8.547052830033052828e-01
-2.268981933593750000e-02 2.766418457031250000e-02 -2.127685546875000000e-01 7.468998395404129187e-02 5.265151297721388790e-01 8.468785180992447481e-01
-2.169799804687500000e-02 2.766418457031250000e-02 -2.127685546875000000e-01 1.244801244854974454e-01 5.406058912180708997e-01 8.320156062168487798e-01
-2.079772949218750000e-02 2.780151367187500000e-02 -2.137451171875000000e-01 1.110026292998867736e-01 5.403983124844176089e-01 8.340552021014591144e-01
-1.979064941406250000e-02 2.780151367187500000e-02 -2.137451171875000000e-01 8.410107088549660659e-02 5.539999847526383414e-01 8.282578262654626267e-01
-1.878356933593750000e-02 2.780151367187500000e-02 -2.137451171875000000e-01 6.869662897772704779e-02 5.634801864259770809e-01 8.232683964980331837e-01
-1.777648925781250000e-02 2.780151367187500000e-02 -2.137451171875000000e-01 3.895710226779009605e-02 5.726354223631381357e-01 8.188840071938683352e-01
-1.678466796875000000e-02 2.780151367187500000e-02 -2.137451171875000000e-01 2.389478325845372994e-02 5.812499477539636583e-01 8.133741682454921351e-01
-1.577758789062500000e-02 2.780151367187500000e-02 -2.137451171875000000e-01 2.078682836894747612e-03 5.889421568009289842e-01 8.081725156303780633e-01
-1.477050781250000000e-02 2.780151367187500000e-02 -2.137451171875000000e-01 2.132159419531647927e-03 5.889357041640940205e-01 8.081770785273190150e-01
-1.377105712890625000e-02 2.780151367187500000e-02 -2.137451171875000000e-01 9.579787601462918731e-03 5.732693211476965756e-01 8.193109990109799234e-01
-1.276397705078125000e-02 2.780151367187500000e-02 -2.137451171875000000e-01 3.747805474053381158e-02 5.481890940553176828e-01 8.355142802918903433e-01
-1.175689697265625000e-02 2.780151367187500000e-02 -2.137451171875000000e-01 6.771685956609244106e-02 5.388780033611374476e-01 8.396576233346660922e-01
-1.075744628906250000e-02 2.780151367187500000e-02 -2.137451171875000000e-01 7.803522415676532320e-02 5.329397222996343775e-01 8.425471833588858983e-01
-9.750366210937500000e-03 2.780151367187500000e-02 -2.137451171875000000e-01 8.763968881385542087e-02 5.266476431243658496e-01 8.455539870026995697e-01
-8.750915527343750000e-03 2.780151367187500000e-02 -2.137451171875000000e-01 8.774514277629440195e-02 5.403871144044943842e-01 8.368288693064740436e-01
-7.743835449218750000e-03 2.780151367187500000e-02 -2.137451171875000000e-01 7.585831914451002245e-02 5.557096942822367103e-01 8.279083591179113855e-01
-6.771087646484375000e-03 2.793884277343750000e-02 -2.147216796875000000e-01 9.511554810065754595e-02 5.439100325254817569e-01 8.337355150331794418e-01
-5.764007568359375000e-03 2.793884277343750000e-02 -2.147216796875000000e-01 8.816804101866017318e-02 5.648308854851076255e-01 8.204830695054231571e-01
-4.753112792968750000e-03 2.793884277343750000e-02 -2.147216796875000000e-01 9.716941554610422638e-02 5.649573499955006239e-01 8.193786044122032264e-01
-3.746032714843750000e-03 2.793884277343750000e-02 -2.147216796875000000e-01 1.236055149517838042e-01 5.720631244333204135e-01 8.108424374297952264e-01
-2.737045288085937500e-03 2.793884277343750000e-02 -2.147216796875000000e-01 2.016716450933852545e-01 5.538967804302064035e-01 8.077913741767607236e-01
-1.729011535644531250e-03 2.793884277343750000e-02 -2.147216796875000000e-01 2.127663128741325016e-01 5.348418659633485950e-01 8.177253050498011211e-01
-7.243156433105468750e-04 2.806091308593750000e-02 -2.158203125000000000e-01 2.164294908446967036e-01 4.894243462706077130e-01 8.447615549788553002e-01
2.892017364501953125e-04 2.806091308593750000e-02 -2.158203125000000000e-01 -2.500446075591859496e-01 -4.644980491936139821e-01 -8.495406149948918628e-01
1.302719116210937500e-03 2.806091308593750000e-02 -2.158203125000000000e-01 -2.516585557856702571e-01 -4.612733598830052184e-01 -8.508201095191120222e-01
-2.668762207031250000e-02 2.667236328125000000e-02 -2.127685546875000000e-01 -2.514054434893597811e-02 -5.727419467080394622e-01 -8.193501177829438653e-01
-2.569580078125000000e-02 2.667236328125000000e-02 -2.127685546875000000e-01 -3.210557080666918972e-02 -5.644420517690683647e-01 -8.248481087557282265e-01
-2.458190917968750000e-02 2.655029296875000000e-02 -2.117919921875000000e-01 1.826155768455420964e-02 5.568388424630802414e-01 8.304197848289203154e-01
-2.359008789062500000e-02 2.655029296875000000e-02 -2.117919921875000000e-01 2.031232954234999180e-02 5.483100985422814100e-01 8.360283757774712443e-01
-2.268981933593750000e-02 2.667236328125000000e-02 -2.127685546875000000e-01 7.179906938137005368e-02 5.317118780784295673e-01 8.438763963675477431e-01
-2.169799804687500000e-02 2.667236328125000000e-02 -2.127685546875000000e-01 8.449839614432037849e-02 5.578944138148761445e-01 8.255990819297179817e-01
-2.069091796875000000e-02 2.667236328125000000e-02 -2.127685546875000000e-01 8.163210862610770224e-02 5.840277452824560456e-01 8.076185928899520805e-01
-1.969909667968750000e-02 2.667236328125000000e-02 -2.127685546875000000e-01 5.758015826605144410e-02 6.076839768937428721e-01 7.920888268374079999e-01
-1.869201660156250000e-02 2.667236328125000000e-02 -2.127685546875000000e-01 4.165084916215109484e-02 6.282215440497641579e-01 7.769188492730769724e-01
-1.770019531250000000e-02 2.667236328125000000e-02 -2.127685546875000000e-01 1.363031912707075681e-02 6.454070669214229117e-01 7.637171808780918170e-01
-1.669311523437500000e-02 2.667236328125000000e-02 -2.127685546875000000e-01 -2.075670247168460829e-04 6.559324268428061711e-01 7.548195866112890062e-01
-1.570129394531250000e-02 2.667236328125000000e-02 -2.127685546875000000e-01 -2.078118222177409609e-04 6.559329099692537968e-01 7.548191667104866553e-01
-1.470184326171875000e-02 2.667236328125000000e-02 -2.127685546875000000e-01 3.427115492271622793e-02 6.401758294282228201e-01 7.674636117472606323e-01
-1.370239257812500000e-02 2.667236328125000000e-02 -2.127685546875000000e-01 5.694072922909185902e-02 6.203133119429957709e-01 7.822845699495618588e-01
-1.270294189453125000e-02 2.667236328125000000e-02 -2.127685546875000000e-01 8.765752248953605219e-02 5.968347781908381888e-01 7.975615376213233132e-01
-1.170349121093750000e-02 2.667236328125000000e-02 -2.127685546875000000e-01 9.782533179938547596e-02 5.711314929580302291e-01 8.150086025373423082e-01
-1.070404052734375000e-02 2.667236328125000000e-02 -2.127685546875000000e-01 8.551382585737772601e-02 5.443642150177613326e-01 8.344788715092374964e-01
-9.750366210937500000e-03 2.679443359375000000e-02 -2.137451171875000000e-01 8.696350792813592467e-02 5.252434079399913580e-01 8.464967281120564513e-01
-8.750915527343750000e-03 2.679443359375000000e-02 -2.137451171875000000e-01 7.805938385921067091e-02 5.431856906801478813e-01 8.359760989596838332e-01
-7.743835449218750000e-03 2.679443359375000000e-02 -2.137451171875000000e-01 7.015634463764844342e-02 5.524277302140033763e-01 8.306032086367641787e-01
-6.740570068359375000e-03 2.679443359375000000e-02 -2.137451171875000000e-01 4.872346933675317238e-02 5.763945569003731118e-01 8.157176829708995269e-01
-5.737304687500000000e-03 2.679443359375000000e-02 -2.137451171875000000e-01 5.112053649862434435e-02 6.053370877443136067e-01 7.943259412541717746e-01
-4.734039306640625000e-03 2.679443359375000000e-02 -2.137451171875000000e-01 8.097574699209862670e-02 6.274730220051806251e-01 7.744162543843960966e-01
-3.728866577148437500e-03 2.679443359375000000e-02 -2.137451171875000000e-01 1.113592412959843875e-01 6.436610947630337920e-01 7.571654472216990950e-01
-2.725601196289062500e-03 2.679443359375000000e-02 -2.137451171875000000e-01 1.741235023500857515e-01 6.390315203029149904e-01 7.492127348014613331e-01
-1.729011535644531250e-03 2.691650390625000000e-02 -2.147216796875000000e-01 2.066821398374872054e-01 6.000083550265514765e-01 7.728340487908961220e-01
-7.209777832031250000e-04 2.691650390625000000e-02 -2.147216796875000000e-01 -2.166810876881282710e-01 -5.824237070955651241e-01 -7.834742699357453155e-01
2.892017364501953125e-04 2.705383300781250000e-02 -2.158203125000000000e-01 -2.470058460859696492e-01 -5.283456472576392171e-01 -8.123047390131740153e-01
-2.656555175781250000e-02 2.555847167968750000e-02 -2.117919921875000000e-01 -5.257694953728413167e-02 -6.010291923115167467e-01 -7.974958146389976577e-01
-2.557373046875000000e-02 2.555847167968750000e-02 -2.117919921875000000e-01 -3.007482134043304098e-02 -5.927392502129958940e-01 -8.048327070753751311e-01
-2.458190917968750000e-02 2.555847167968750000e-02 -2.117919921875000000e-01 3.049920438691429425e-02 5.866283331006486579e-01 8.092817786996810980e-01
-2.359008789062500000e-02 2.555847167968750000e-02 -2.117919921875000000e-01 1.004176726599575499e-02 5.933802683861990612e-01 8.048596275128340194e-01
-2.258300781250000000e-02 2.555847167968750000e-02 -2.117919921875000000e-01 3.840840185994381234e-02 6.145578035298202568e-01 7.879362288835104478e-01
-2.159118652343750000e-02 2.555847167968750000e-02 -2.117919921875000000e-01 5.826953953452070761e-02 6.202021090526298464e-01 7.822748907443627386e-01
-2.059936523437500000e-02 2.555847167968750000e-02 -2.117919921875000000e-01 5.340164253483834639e-02 6.290654374986806019e-01 7.755159185465988481e-01
-1.960754394531250000e-02 2.555847167968750000e-02 -2.117919921875000000e-01 3.199393415423621573e-02 6.299261741454532659e-01 7.759957495397811211e-01
-1.861572265625000000e-02 2.555847167968750000e-02 -2.117919921875000000e-01 2.415525735439636237e-02 6.284005011700076748e-01 7.775148446630624210e-01
-1.760864257812500000e-02 2.555847167968750000e-02 -2.117919921875000000e-01 1.721502757103348866e-02 6.123982364668264511e-01 7.903619694785735117e-01
-1.661682128906250000e-02 2.555847167968750000e-02 -2.117919921875000000e-01 1.861812967642566567e-03 5.944319724933744276e-01 8.041437456886111335e-01
-1.562500000000000000e-02 2.555847167968750000e-02 -2.117919921875000000e-01 2.425723802942408164e-02 5.864590016024778807e-01 8.096156037544043338e-01
-1.463317871093750000e-02 2.555847167968750000e-02 -2.117919921875000000e-01 6.178468674991798720e-02 5.775258617554898111e-01 8.140310384050435388e-01
-1.364135742187500000e-02 2.555847167968750000e-02 -2.117919921875000000e-01 8.485913111483017746e-02 5.670567354638283986e-01 8.192957870217213445e-01
-1.264190673828125000e-02 2.555847167968750000e-02 -2.117919921875000000e-01 9.873338845602774860e-02 5.682868352667578282e-01 8.168854208923574944e-01
-1.170349121093750000e-02 2.566528320312500000e-02 -2.127685546875000000e-01 1.079448560270868107e-01 5.683091539346054599e-01 8.157037535842436293e-01
-1.070404052734375000e-02 2.566528320312500000e-02 -2.127685546875000000e-01 8.984876176488855448e-02 5.672282807164672480e-01 8.186447810648749268e-01
-9.704589843750000000e-03 2.566528320312500000e-02 -2.127685546875000000e-01 7.013149628578443928e-02 5.659727441626081212e-01 8.214355885239960076e-01
-8.705139160156250000e-03 2.566528320312500000e-02 -2.127685546875000000e-01 5.296227413721993349e-02 5.918049179865493281e-01 8.043394411348655515e-01
-7.709503173828125000e-03 2.566528320312500000e-02 -2.127685546875000000e-01 4.366172490628737052e-02 6.143920070150630242e-01 7.877919239838718779e-01
-6.710052490234375000e-03 2.566528320312500000e-02 -2.127685546875000000e-01 2.134255274700595784e-02 6.342200585752824082e-01 7.728579512064338575e-01
-5.710601806640625000e-03 2.566528320312500000e-02 -2.127685546875000000e-01 1.387287865301977362e-02 6.458515064518367543e-01 7.633369995302019539e-01
-4.711151123046875000e-03 2.566528320312500000e-02 -2.127685546875000000e-01 2.160940005067335523e-02 6.602381437423014976e-01 7.507453811893683993e-01
-3.711700439453125000e-03 2.566528320312500000e-02 -2.127685546875000000e-01 9.060163863571782383e-02 6.755616405660369583e-01 7.317156639516797512e-01
-2.712249755859375000e-03 2.566528320312500000e-02 -2.127685546875000000e-01 9.060163863571782383e-02 6.755616405660369583e-01 7.317156639516797512e-01
-1.721382141113281250e-03 2.578735351562500000e-02 -2.137451171875000000e-01 -1.541695579987109599e-01 -6.600747394955293057e-01 -7.352095522137831463e-01
-7.209777832031250000e-04 2.590942382812500000e-02 -2.147216796875000000e-01 -1.912036556637483620e-01 -6.173067900677454700e-01 -7.631339915094038640e-01
-2.445983886718750000e-02 2.444458007812500000e-02 -2.108154296875000000e-01 -3.540997543406525228e-02 -5.960324542063101250e-01 -8.021791864493633684e-01
-2.346801757812500000e-02 2.444458007812500000e-02 -2.108154296875000000e-01 4.820217372065833950e-02 6.095955935534379533e-01 7.912457031597929236e-01
-2.247619628906250000e-02 2.444458007812500000e-02 -2.108154296875000000e-01 2.106273948218946243e-02 5.907726095224092866e-01 8.065631313440928540e-01
-2.148437500000000000e-02 2.444458007812500000e-02 -2.108154296875000000e-01 3.488837155073386265e-02 5.947638590132545700e-01 8.031430467495807024e-01
-2.050781250000000000e-02 2.444458007812500000e-02 -2.108154296875000000e-01 4.279651188546804846e-02 5.978127640253264596e-01 8.004925719448222621e-01
-1.951599121093750000e-02 2.444458007812500000e-02 -2.108154296875000000e-01 5.184803098666020127e-02 5.879544417322984939e-01 8.072306709547572012e-01
-1.852416992187500000e-02 2.444458007812500000e-02 -2.108154296875000000e-01 5.254619333846984042e-02 5.781460772696703776e-01 8.142395291947747138e-01
-1.753234863281250000e-02 2.444458007812500000e-02 -2.108154296875000000e-01 4.463254456268442305e-02 5.684833855864963592e-01 8.214831564176924283e-01
-1.654052734375000000e-02 2.444458007812500000e-02 -2.108154296875000000e-01 2.794013657385251148e-02 5.585801418685626407e-01 8.289798392472105260e-01
-1.555633544921875000e-02 2.444458007812500000e-02 -2.108154296875000000e-01 2.509213217331423065e-02 5.481480960586918583e-01 8.360048143941684051e-01
-1.456451416015625000e-02 2.444458007812500000e-02 -2.108154296875000000e-01 4.421762404329685620e-02 5.556072998504549831e-01 8.302682277895815366e-01
-1.357269287109375000e-02 2.444458007812500000e-02 -2.108154296875000000e-01 7.011748970546229087e-02 5.668976168738734112e-01 8.207987753524779162e-01
-1.264190673828125000e-02 2.455139160156250000e-02 -2.117919921875000000e-01 9.329226188860537117e-02 5.709915728388110789e-01 8.156378961394380456e-01
-1.165008544921875000e-02 2.455139160156250000e-02 -2.117919921875000000e-01 9.768379874242059946e-02 5.957671337029246672e-01 7.971947051145357177e-01
-1.065826416015625000e-02 2.455139160156250000e-02 -2.117919921875000000e-01 8.032846676904754901e-02 6.196416248571608998e-01 7.807634687732971646e-01
-9.658813476562500000e-03 2.455139160156250000e-02 -2.117919921875000000e-01 4.320318846572919480e-02 6.407902443194041231e-01 7.664994111488104833e-01
-8.666992187500000000e-03 2.455139160156250000e-02 -2.117919921875000000e-01 1.471141136320217209e-02 6.582310491094121030e-01 7.526722130941364552e-01
-7.671356201171875000e-03 2.455139160156250000e-02 -2.117919921875000000e-01 1.098062828439300576e-03 6.683802694128814226e-01 7.438189361111942066e-01
-6.679534912109375000e-03 2.455139160156250000e-02 -2.117919921875000000e-01 1.100781017155527111e-03 6.683776182295425583e-01 7.438213143833376506e-01
-5.683898925781250000e-03 2.455139160156250000e-02 -2.117919921875000000e-01 1.097847457014285242e-03 6.683750563589190286e-01 7.438236207382586951e-01
-4.688262939453125000e-03 2.455139160156250000e-02 -2.117919921875000000e-01 -5.444390988775791890e-05 6.694076130344802644e-01 7.428953120375307861e-01
-3.694534301757812500e-03 2.455139160156250000e-02 -2.117919921875000000e-01 -7.536267197640663523e-03 6.889593909609111888e-01 7.247607621025685676e-01
-2.698898315429687500e-03 2.455139160156250000e-02 -2.117919921875000000e-01 -4.790717859784521943e-02 -7.191663434011084099e-01 -6.931844435342394695e-01
-1.705169677734375000e-03 2.455139160156250000e-02 -2.117919921875000000e-01 -3.492979893695660754e-02 -7.205697170900667858e-01 -6.925021241548395823e-01
-2.618408203125000000e-02 2.322387695312500000e-02 -2.087402343750000000e-01 7.000350888441364550e-03 -4.530815722530291967e-01 -8.914415763089370559e-01
-2.532958984375000000e-02 2.333068847656250000e-02 -2.097167968750000000e-01 -4.330045111132351660e-02 -5.122433731852116257e-01 -8.577480967984668636e-01
-2.433776855468750000e-02 2.333068847656250000e-02 -2.097167968750000000e-01 7.806026728522348634e-02 5.256322794584386005e-01 8.471229553392384259e-01
-2.336120605468750000e-02 2.333068847656250000e-02 -2.097167968750000000e-01 8.017242287956082014e-02 5.200699188245333504e-01 8.503526692752038096e-01
-2.236938476562500000e-02 2.333068847656250000e-02 -2.097167968750000000e-01 2.078192856784607037e-02 5.296146190910842044e-01 8.479837655816334641e-01
-2.139282226562500000e-02 2.333068847656250000e-02 -2.097167968750000000e-01 2.385351789324008376e-02 5.258499017458857505e-01 8.502428420856944502e-01
-2.040100097656250000e-02 2.333068847656250000e-02 -2.097167968750000000e-01 4.344872307999102234e-02 5.282449547891966413e-01 8.479796437429838463e-01
-1.942443847656250000e-02 2.333068847656250000e-02 -2.097167968750000000e-01 5.260000992023237260e-02 5.309126785676419047e-01 8.457925080612402891e-01
-1.852416992187500000e-02 2.345275878906250000e-02 -2.108154296875000000e-01 5.299216513134909906e-02 5.597681186735093961e-01 8.269531327417604105e-01
-1.753234863281250000e-02 2.345275878906250000e-02 -2.108154296875000000e-01 4.493954170930343495e-02 5.594461370776501186e-01 8.276475441272408418e-01
-1.654052734375000000e-02 2.345275878906250000e-02 -2.108154296875000000e-01 2.816542924418533045e-02 5.593839181473548861e-01 8.284300457573978704e-01
-1.555633544921875000e-02 2.345275878906250000e-02 -2.108154296875000000e-01 2.569665333665771892e-02 5.682473253579563011e-01 8.224564786241425063e-01
-1.456451416015625000e-02 2.345275878906250000e-02 -2.108154296875000000e-01 4.066040117407047905e-02 5.767759216265255784e-01 8.158898626703458001e-01
-1.357269287109375000e-02 2.345275878906250000e-02 -2.108154296875000000e-01 6.095508460485096758e-02 6.021499071607467890e-01 7.960527413225328974e-01
-1.258087158203125000e-02 2.345275878906250000e-02 -2.108154296875000000e-01 7.631708312239320058e-02 6.157373700520043514e-01 7.842468960379319620e-01
-1.159667968750000000e-02 2.345275878906250000e-02 -2.108154296875000000e-01 7.477840760140766485e-02 6.218503231494703076e-01 7.795578011639017202e-01
-1.060485839843750000e-02 2.345275878906250000e-02 -2.108154296875000000e-01 5.180548885038288587e-02 6.267751433573652831e-01 7.774761160282204209e-01
-9.613037109375000000e-03 2.345275878906250000e-02 -2.108154296875000000e-01 4.217562759530906272e-03 6.421220567539872581e-01 7.665908141860288127e-01
-8.621215820312500000e-03 2.345275878906250000e-02 -2.108154296875000000e-01 -1.675474986881784686e-02 6.423468302799590912e-01 7.662309234076388753e-01
-7.637023925781250000e-03 2.345275878906250000e-02 -2.108154296875000000e-01 -1.783033827068075325e-02 6.558642803947022371e-01 7.546682216308651103e-01
-6.645202636718750000e-03 2.345275878906250000e-02 -2.108154296875000000e-01 -1.208568448884513903e-02 6.679680446405875660e-01 7.440918139379482099e-01
-5.657196044921875000e-03 2.345275878906250000e-02 -2.108154296875000000e-01 1.205750316583128969e-04 6.785704767120421810e-01 7.345352909128693986e-01
-4.665374755859375000e-03 2.345275878906250000e-02 -2.108154296875000000e-01 1.181039369475541870e-04 6.785702689839382407e-01 7.345354832154304958e-01
-3.677368164062500000e-03 2.345275878906250000e-02 -2.108154296875000000e-01 -4.974254226265052703e-02 6.688092375542361578e-01 7.417680791537001328e-01
-2.687454223632812500e-03 2.345275878906250000e-02 -2.108154296875000000e-01 2.658454644069320472e-02 -6.634245385772232773e-01 -7.477707827296684595e-01
-1.697540283203125000e-03 2.345275878906250000e-02 -2.108154296875000000e-01 8.961827841327152377e-03 -6.667954031724414588e-01 -7.451869402705899592e-01
-7.038116455078125000e-04 2.333068847656250000e-02 -2.097167968750000000e-01 3.649387783418509001e-02 -5.510727380742568293e-01 -8.336588236394821827e-01
-2.717590332031250000e-02 2.224731445312500000e-02 -2.087402343750000000e-01 4.935989925938743389e-02 -3.382473924715693192e-01 -9.397618325040062448e-01
-2.618408203125000000e-02 2.224731445312500000e-02 -2.087402343750000000e-01 -8.237811130484362643e-02 -2.328517808090403429e-01 -9.690169735107354576e-01
-2.520751953125000000e-02 2.224731445312500000e-02 -2.087402343750000000e-01 8.351563995321086009e-02 2.920692087913615564e-01 9.527437825350494327e-01
-2.433776855468750000e-02 2.235412597656250000e-02 -2.097167968750000000e-01 9.109504682857441638e-02 3.609586430547975233e-01 9.281220557918764547e-01
-2.336120605468750000e-02 2.235412597656250000e-02 -2.097167968750000000e-01 9.285297694304989191e-02 4.032718809511200431e-01 9.103571358027349181e-01
-2.236938476562500000e-02 2.235412597656250000e-02 -2.097167968750000000e-01 3.163453111880823454e-02 4.526701412057434482e-01 8.911167149715379932e-01
-2.139282226562500000e-02 2.235412597656250000e-02 -2.097167968750000000e-01 1.895158346333235266e-02 4.313894362435308216e-01 9.019667354075321386e-01
-2.040100097656250000e-02 2.235412597656250000e-02 -2.097167968750000000e-01 4.401995487321458400e-02 4.469021239969170334e-01 8.934991522883523052e-01
-1.942443847656250000e-02 2.235412597656250000e-02 -2.097167968750000000e-01 5.731270450026933194e-02 4.608964723549327513e-01 8.856013186946163351e-01
-1.843261718750000000e-02 2.235412597656250000e-02 -2.097167968750000000e-01 5.919174930803110246e-02 4.742414773978272935e-01 8.784027310575607261e-01
-1.744079589843750000e-02 2.235412597656250000e-02 -2.097167968750000000e-01 4.984948897034247733e-02 4.870960475809787416e-01 8.719245775182534741e-01
-1.646423339843750000e-02 2.235412597656250000e-02 -2.097167968750000000e-01 2.968263723621688416e-02 4.990718559794572462e-01 8.660520905903542621e-01
-1.548004150390625000e-02 2.235412597656250000e-02 -2.097167968750000000e-01 2.327018612481323787e-02 5.078265664959549230e-01 8.611449801274149163e-01
-1.449584960937500000e-02 2.235412597656250000e-02 -2.097167968750000000e-01 2.265451549578736956e-02 4.947369274137951023e-01 8.687474578845157946e-01
-1.351165771484375000e-02 2.235412597656250000e-02 -2.097167968750000000e-01 4.909578854776015799e-02 5.338956049617082922e-01 8.441238573511858911e-01
-1.252746582031250000e-02 2.235412597656250000e-02 -2.097167968750000000e-01 6.566240724500499448e-02 5.463360916674546708e-01 8.349882174116719513e-01
-1.153564453125000000e-02 2.235412597656250000e-02 -2.097167968750000000e-01 6.455890576782714885e-02 5.580612539156182272e-01 8.272845849912765503e-01
-1.055145263671875000e-02 2.235412597656250000e-02 -2.097167968750000000e-01 2.077437051037215807e-02 5.519664597068559830e-01 8.336074933016003330e-01
-9.567260742187500000e-03 2.235412597656250000e-02 -2.097167968750000000e-01 -6.657975643258008495e-03 5.538132340987167446e-01 8.326143003200544568e-01
-8.583068847656250000e-03 2.235412597656250000e-02 -2.097167968750000000e-01 -3.378695058847984434e-02 5.544545714318630525e-01 8.315278529239057415e-01
-7.598876953125000000e-03 2.235412597656250000e-02 -2.097167968750000000e-01 -6.042045714010348817e-02 5.539128239485691108e-01 8.303794023362467414e-01
-6.614685058593750000e-03 2.235412597656250000e-02 -2.097167968750000000e-01 -5.140717129161154197e-02 5.607053643684222211e-01 8.264180522642701199e-01
-5.630493164062500000e-03 2.235412597656250000e-02 -2.097167968750000000e-01 -3.344443416661813107e-02 5.669196241561249572e-01 8.230939251203066576e-01
-4.642486572265625000e-03 2.235412597656250000e-02 -2.097167968750000000e-01 -6.424457471046241680e-03 5.716758643906439952e-01 8.204544060576509645e-01
-3.660202026367187500e-03 2.235412597656250000e-02 -2.097167968750000000e-01 -6.185581808611761295e-02 5.657001330882222012e-01 8.222877946272003635e-01
-2.674102783203125000e-03 2.235412597656250000e-02 -2.097167968750000000e-01 -4.608579929493636373e-02 5.429985771402615624e-01 8.384680341712487106e-01
-1.688957214355468750e-03 2.235412597656250000e-02 -2.097167968750000000e-01 -4.011645901790605179e-02 5.312047851547729849e-01 8.462931796632513493e-01
-7.004737854003906250e-04 2.224731445312500000e-02 -2.087402343750000000e-01 4.197064135704767218e-02 -3.970945639481122669e-01 -9.168175241273133214e-01
-2.717590332031250000e-02 2.127075195312500000e-02 -2.087402343750000000e-01 -4.979899777694116875e-02 -9.439023963613014934e-02 -9.942889632706608527e-01
-2.618408203125000000e-02 2.127075195312500000e-02 -2.087402343750000000e-01 4.723775879964867142e-02 1.261960576370747544e-01 9.908799872741634873e-01
-2.520751953125000000e-02 2.127075195312500000e-02 -2.087402343750000000e-01 7.441629757286558067e-02 1.540898169300191911e-01 9.852504975761342543e-01
-2.423095703125000000e-02 2.127075195312500000e-02 -2.087402343750000000e-01 8.207077420389535805e-02 1.899524644548568897e-01 9.783570152398864961e-01
-2.325439453125000000e-02 2.127075195312500000e-02 -2.087402343750000000e-01 4.215530004607416503e-02 2.442468350319895454e-01 9.687963739893340476e-01
-2.226257324218750000e-02 2.127075195312500000e-02 -2.087402343750000000e-01 -2.233953013093978052e-03 2.509006600794655983e-01 9.680102624588357019e-01
-2.128601074218750000e-02 2.127075195312500000e-02 -2.087402343750000000e-01 -2.920287220219622195e-03 2.512474350081814189e-01 9.679184874380490911e-01
-2.030944824218750000e-02 2.127075195312500000e-02 -2.087402343750000000e-01 -8.949249925228887695e-03 2.864773109074911783e-01 9.580452292355451371e-01
-1.933288574218750000e-02 2.127075195312500000e-02 -2.087402343750000000e-01 1.889387572087107559e-02 3.549105690016112757e-01 9.347093181685934837e-01
-1.834106445312500000e-02 2.127075195312500000e-02 -2.087402343750000000e-01 1.832355698267335714e-02 3.916942462107879108e-01 9.199129658532189113e-01
-1.736450195312500000e-02 2.127075195312500000e-02 -2.087402343750000000e-01 6.980864505807530228e-03 4.246815488644257175e-01 9.053158838686439225e-01
-1.638793945312500000e-02 2.127075195312500000e-02 -2.087402343750000000e-01 -4.059728620636224999e-03 4.381363284879033482e-01 8.988993693749411928e-01
-1.540374755859375000e-02 2.127075195312500000e-02 -2.087402343750000000e-01 -3.966232016442707529e-03 4.381377897185096404e-01 8.988990745485117007e-01
-1.442718505859375000e-02 2.127075195312500000e-02 -2.087402343750000000e-01 -3.815582499831957162e-03 4.381356247780036073e-01 8.989007818611436385e-01
-1.344299316406250000e-02 2.127075195312500000e-02 -2.087402343750000000e-01 2.589483938659724316e-02 4.393257407318758023e-01 8.979545371696335820e-01
-1.246643066406250000e-02 2.127075195312500000e-02 -2.087402343750000000e-01 4.532647222178607521e-02 4.401552417184208532e-01 8.967769366479749760e-01
-1.148223876953125000e-02 2.127075195312500000e-02 -2.087402343750000000e-01 5.454277247518540817e-02 4.416382938112891066e-01 8.955337533617443446e-01
-1.055145263671875000e-02 2.136230468750000000e-02 -2.097167968750000000e-01 2.919496062176909351e-02 4.610791199061852197e-01 8.868786272432270801e-01
-9.567260742187500000e-03 2.136230468750000000e-02 -2.097167968750000000e-01 1.828812178491630736e-03 4.626138472109979638e-01 8.865579979982445291e-01
-8.583068847656250000e-03 2.136230468750000000e-02 -2.097167968750000000e-01 -2.538161278004672644e-02 4.628103735031563470e-01 8.860938617948735940e-01
-7.564544677734375000e-03 2.127075195312500000e-02 -2.087402343750000000e-01 -6.476174701349225737e-02 4.492425173241483272e-01 8.910595248085408926e-01
-6.584167480468750000e-03 2.127075195312500000e-02 -2.087402343750000000e-01 -4.625624953485880236e-02 4.391325408547763764e-01 8.972307233601606313e-01
-5.603790283203125000e-03 2.127075195312500000e-02 -2.087402343750000000e-01 -2.812141994436748518e-02 4.386801948853323863e-01 8.982031353517304639e-01
-4.623413085937500000e-03 2.127075195312500000e-02 -2.087402343750000000e-01 -6.143083030963630451e-04 4.372863653254872029e-01 8.993221098837352878e-01
-3.641128540039062500e-03 2.127075195312500000e-02 -2.087402343750000000e-01 -2.230415501731215083e-02 3.991870595231816199e-01 9.165981759627276348e-01
-2.660751342773437500e-03 2.127075195312500000e-02 -2.087402343750000000e-01 -2.292463424738575700e-02 3.567604094170221396e-01 9.339145953550691548e-01
-1.681327819824218750e-03 2.127075195312500000e-02 -2.087402343750000000e-01 -3.649836125783327556e-02 2.999236218568447909e-01 9.532647537162826090e-01
-7.004737854003906250e-04 2.127075195312500000e-02 -2.087402343750000000e-01 -4.003098436639444813e-02 2.164167634284026309e-01 9.754800381339601145e-01
2.796649932861328125e-04 2.127075195312500000e-02 -2.087402343750000000e-01 1.925903019693531171e-02 -1.866305615420904007e-01 -9.822413772868443527e-01
1.259803771972656250e-03 2.127075195312500000e-02 -2.087402343750000000e-01 3.149188835323872560e-02 -1.593333923217991888e-01 -9.867224184435940959e-01
2.241134643554687500e-03 2.127075195312500000e-02 -2.087402343750000000e-01 3.154435722880492843e-02 -1.271674777433204340e-01 -9.913795368734539259e-01
-2.717590332031250000e-02 2.027893066406250000e-02 -2.087402343750000000e-01 -1.512557369047629746e-02 -5.320295787077795879e-02 -9.984691594107126811e-01
-2.618408203125000000e-02 2.027893066406250000e-02 -2.087402343750000000e-01 1.865962685238017199e-02 5.948703743353882939e-02 9.980546631838914662e-01
-2.520751953125000000e-02 2.027893066406250000e-02 -2.087402343750000000e-01 4.681042884959452088e-02 5.585389554679934254e-02 9.973410279854952876e-01
-2.423095703125000000e-02 2.027893066406250000e-02 -2.087402343750000000e-01 4.029983903164679332e-02 9.667175494843011085e-02 9.945001230614373133e-01
-2.325439453125000000e-02 2.027893066406250000e-02 -2.087402343750000000e-01 2.053517039053974133e-02 1.353968534799307455e-01 9.905786182049184374e-01
-2.226257324218750000e-02 2.027893066406250000e-02 -2.087402343750000000e-01 -3.701983600955564835e-02 2.069630085223034266e-01 9.776481191334757126e-01
-2.128601074218750000e-02 2.027893066406250000e-02 -2.087402343750000000e-01 -4.354144951049444129e-02 2.426757397913746617e-01 9.691298300492221518e-01
-2.030944824218750000e-02 2.027893066406250000e-02 -2.087402343750000000e-01 -4.424978200790596894e-02 2.973663567092396653e-01 9.537374935954474608e-01
-1.933288574218750000e-02 2.027893066406250000e-02 -2.087402343750000000e-01 -1.003545471371149710e-02 3.264280406451318117e-01 9.451687806573327855e-01
-1.834106445312500000e-02 2.027893066406250000e-02 -2.087402343750000000e-01 -1.369032550676870831e-02 3.545057301185876031e-01 9.349536150529639267e-01
-1.736450195312500000e-02 2.027893066406250000e-02 -2.087402343750000000e-01 -1.359700455044332915e-02 3.545310394091139017e-01 9.349453799889856365e-01
-1.638793945312500000e-02 2.027893066406250000e-02 -2.087402343750000000e-01 -1.349533673442038229e-02 3.545596889769038196e-01 9.349359886318560076e-01
-1.540374755859375000e-02 2.027893066406250000e-02 -2.087402343750000000e-01 1.045210385092931911e-02 3.550663097376265398e-01 9.347826855555216863e-01
-1.442718505859375000e-02 2.027893066406250000e-02 -2.087402343750000000e-01 1.051623149734650861e-02 3.550598923241290450e-01 9.347844038803128086e-01
-1.344299316406250000e-02 2.027893066406250000e-02 -2.087402343750000000e-01 1.058792675111577299e-02 3.550468899274840107e-01 9.347885331773888584e-01
-1.246643066406250000e-02 2.027893066406250000e-02 -2.087402343750000000e-01 3.146997096870633032e-02 3.716104116538710422e-01 9.278552381043442265e-01
-1.148223876953125000e-02 2.027893066406250000e-02 -2.087402343750000000e-01 4.239184824594960377e-02 3.864591088307312017e-01 9.213318014722218230e-01
