-1.719665527343750000e-02 2.453613281250000000e-02 -1.956787109375000000e-01 -1.614082048968491778e-01 -3.850040397564787886e-01 9.086909709924317902e-01
-1.618957519531250000e-02 2.441406250000000000e-02 -1.947021484375000000e-01 -1.052254548830937192e-01 -4.174339969428439434e-01 9.025942952628093208e-01
-1.528167724609375000e-02 2.441406250000000000e-02 -1.947021484375000000e-01 -6.776389641671597130e-02 -4.388204250486569258e-01 8.960160092891983341e-01
-1.436614990234375000e-02 2.441406250000000000e-02 -1.947021484375000000e-01 -9.753582637245603731e-03 -4.630395505128471756e-01 8.862839512744201675e-01
-1.345825195312500000e-02 2.441406250000000000e-02 -1.947021484375000000e-01 -1.306743400049559592e-02 -4.662929213787360139e-01 8.845338623482577045e-01
-1.254272460937500000e-02 2.441406250000000000e-02 -1.947021484375000000e-01 -1.296117640051231389e-02 -4.663274783054779382e-01 8.845172077939291722e-01
-1.162719726562500000e-02 2.441406250000000000e-02 -1.947021484375000000e-01 -1.412143756743696821e-03 -4.708888753170577535e-01 8.821914038079530229e-01
-1.071166992187500000e-02 2.441406250000000000e-02 -1.947021484375000000e-01 -1.312897553570173577e-03 -4.708949005932404619e-01 8.821883409427354605e-01
-9.796142578125000000e-03 2.441406250000000000e-02 -1.947021484375000000e-01 5.893106559188324503e-03 -4.712820020888435213e-01 8.819628936651550122e-01
-8.880615234375000000e-03 2.441406250000000000e-02 -1.947021484375000000e-01 1.945130490813479695e-03 -4.875425314759207485e-01 8.730970716188576342e-01
-7.965087890625000000e-03 2.441406250000000000e-02 -1.947021484375000000e-01 -8.014395936853735761e-04 -4.874140504940111529e-01 8.731706025030842033e-01
-7.053375244140625000e-03 2.441406250000000000e-02 -1.947021484375000000e-01 -6.994237538198272127e-04 -4.874176800252575381e-01 8.731686641223495027e-01
-6.137847900390625000e-03 2.441406250000000000e-02 -1.947021484375000000e-01 -6.034238653333913807e-04 -4.874204587333300642e-01 8.731671846146239480e-01
-5.226135253906250000e-03 2.441406250000000000e-02 -1.947021484375000000e-01 3.510090339076687993e-02 -4.920825719886453009e-01 8.698405997228410014e-01
-4.310607910156250000e-03 2.441406250000000000e-02 -1.947021484375000000e-01 5.896782344696073486e-02 -4.954165557303802370e-01 8.666517363429067089e-01
-3.396987915039062500e-03 2.441406250000000000e-02 -1.947021484375000000e-01 7.854959594389031297e-02 -4.653348919597937727e-01 8.816424441358405861e-01
-2.494812011718750000e-03 2.453613281250000000e-02 -1.956787109375000000e-01 1.011657450809779202e-01 -4.519153291571842423e-01 8.863058316940967130e-01
-1.575469970703125000e-03 2.453613281250000000e-02 -1.956787109375000000e-01 8.638400465449729004e-02 -4.127059815659475106e-01 9.067588304061556803e-01
-6.566047668457031250e-04 2.453613281250000000e-02 -1.956787109375000000e-01 8.582765013951475230e-02 -3.809041369283898693e-01 9.206224269169025476e-01
2.622604370117187500e-04 2.453613281250000000e-02 -1.956787109375000000e-01 6.200499558060691002e-02 -3.891278794504460792e-01 9.190945946731751137e-01
1.181602478027343750e-03 2.453613281250000000e-02 -1.956787109375000000e-01 1.025164328115157203e-01 -3.996103083815686352e-01 9.109346751764308969e-01
2.099990844726562500e-03 2.453613281250000000e-02 -1.956787109375000000e-01 1.535450270535384520e-01 -3.867499056541758296e-01 9.093120669734973127e-01
3.019332885742187500e-03 2.453613281250000000e-02 -1.956787109375000000e-01 1.833609820521837630e-01 -3.894883142600460979e-01 9.025949275925089221e-01
3.936767578125000000e-03 2.453613281250000000e-02 -1.956787109375000000e-01 2.582100321743007743e-01 -2.964540346916263447e-01 9.194795183143573691e-01
4.882812500000000000e-03 2.465820312500000000e-02 -1.966552734375000000e-01 2.209340293779522568e-01 -1.786368227608197967e-01 9.587893617561374926e-01
5.805969238281250000e-03 2.465820312500000000e-02 -1.966552734375000000e-01 2.702700386578792413e-01 -2.022296563992714846e-01 9.413061522567993666e-01
6.729125976562500000e-03 2.465820312500000000e-02 -1.966552734375000000e-01 -2.773623884544774709e-01 2.152634989226576423e-01 -9.363395385769005541e-01
7.656097412109375000e-03 2.465820312500000000e-02 -1.966552734375000000e-01 -2.729159414376833293e-01 1.888181622961013773e-01 -9.433263435822759613e-01
-2.098083496093750000e-02 2.372741699218750000e-02 -1.966552734375000000e-01 2.581951854526994827e-01 3.141387700022368890e-01 -9.135929506024702551e-01
-1.995849609375000000e-02 2.362060546875000000e-02 -1.956787109375000000e-01 -1.729731202685201030e-01 -2.958367562211330903e-01 9.394471317392638632e-01
-1.904296875000000000e-02 2.362060546875000000e-02 -1.956787109375000000e-01 -1.758983951448559735e-01 -3.253985690217251481e-01 9.290724007654503902e-01
-1.811218261718750000e-02 2.362060546875000000e-02 -1.956787109375000000e-01 -1.772361393855717282e-01 -3.575546815923771327e-01 9.169198441341925854e-01
-1.719665527343750000e-02 2.362060546875000000e-02 -1.956787109375000000e-01 -1.577907146806584726e-01 -3.532176619184510535e-01 9.221384785754414004e-01
-1.628112792968750000e-02 2.362060546875000000e-02 -1.956787109375000000e-01 -9.385083903587322640e-02 -3.621604418829993954e-01 9.273790133205372932e-01
-1.536560058593750000e-02 2.362060546875000000e-02 -1.956787109375000000e-01 -7.338125912497031611e-02 -3.466034187398973065e-01 9.351370278879183040e-01
-1.444244384765625000e-02 2.362060546875000000e-02 -1.956787109375000000e-01 -2.668433291571286822e-02 -3.367889666626295853e-01 9.412019646766370817e-01
-1.352691650390625000e-02 2.362060546875000000e-02 -1.956787109375000000e-01 -1.720199354182436148e-03 -3.464100862674805992e-01 9.380816025518986523e-01
-1.260375976562500000e-02 2.362060546875000000e-02 -1.956787109375000000e-01 -1.629919514743074626e-03 -3.464153017078257513e-01 9.380798378096885104e-01
-1.168823242187500000e-02 2.362060546875000000e-02 -1.956787109375000000e-01 2.313024449948430233e-02 -3.778491625935435083e-01 9.255781988123705784e-01
-1.076507568359375000e-02 2.362060546875000000e-02 -1.956787109375000000e-01 3.522452448971374189e-02 -4.072191930391278469e-01 9.126509528264543647e-01
-9.849548339843750000e-03 2.362060546875000000e-02 -1.956787109375000000e-01 3.500497531149859842e-02 -4.348635592950779727e-01 8.998157236349326737e-01
-8.926391601562500000e-03 2.362060546875000000e-02 -1.956787109375000000e-01 2.279377155242054420e-02 -4.607221513876826324e-01 8.872516797386869047e-01
-8.010864257812500000e-03 2.362060546875000000e-02 -1.956787109375000000e-01 -7.707977789843324830e-04 -4.842426094829141436e-01 8.749334266285417883e-01
-7.091522216796875000e-03 2.362060546875000000e-02 -1.956787109375000000e-01 -6.851550748749303749e-04 -4.842456295118212628e-01 8.749318264077626806e-01
-6.172180175781250000e-03 2.362060546875000000e-02 -1.956787109375000000e-01 -6.021845862012800829e-04 -4.842482772368617572e-01 8.749304220147198219e-01
-5.252838134765625000e-03 2.362060546875000000e-02 -1.956787109375000000e-01 1.264938767221899379e-02 -4.789559430991164879e-01 8.777477983803512185e-01
-4.333496093750000000e-03 2.362060546875000000e-02 -1.956787109375000000e-01 3.453784376390238442e-02 -4.644084859672130139e-01 8.849473970297790926e-01
-3.414154052734375000e-03 2.362060546875000000e-02 -1.956787109375000000e-01 4.451214609508600401e-02 -4.488123317603977536e-01 8.925167559826563402e-01
-2.494812011718750000e-03 2.362060546875000000e-02 -1.956787109375000000e-01 4.232804543980796252e-02 -4.327079005040861404e-01 9.005399543665963957e-01
-1.575469970703125000e-03 2.362060546875000000e-02 -1.956787109375000000e-01 4.481041943453472481e-02 -4.115694047046558057e-01 9.102761402020578263e-01
-6.566047668457031250e-04 2.362060546875000000e-02 -1.956787109375000000e-01 4.230683786138132035e-02 -4.120687392644810099e-01 9.101700311431660806e-01
2.622604370117187500e-04 2.362060546875000000e-02 -1.956787109375000000e-01 5.807461860580192398e-02 -3.964034513405815807e-01 9.162377652329475319e-01
1.181602478027343750e-03 2.362060546875000000e-02 -1.956787109375000000e-01 9.127603510866838521e-02 -3.817173333889986031e-01 9.197611444311144524e-01
2.099990844726562500e-03 2.362060546875000000e-02 -1.956787109375000000e-01 1.299220120271556145e-01 -3.912762271420968663e-01 9.110560821729152270e-01
3.019332885742187500e-03 2.362060546875000000e-02 -1.956787109375000000e-01 1.609317908019952115e-01 -3.358640654479163601e-01 9.280604981627333938e-01
3.959655761718750000e-03 2.372741699218750000e-02 -1.966552734375000000e-01 1.562686999898298679e-01 -3.064373249914207897e-01 9.389761760852033401e-01
4.882812500000000000e-03 2.372741699218750000e-02 -1.966552734375000000e-01 2.171986115138369311e-01 -2.713403808002926576e-01 9.376562061350703914e-01
5.805969238281250000e-03 2.372741699218750000e-02 -1.966552734375000000e-01 2.645765962210573363e-01 -2.444706596443044222e-01 9.328629702722465167e-01
6.729125976562500000e-03 2.372741699218750000e-02 -1.966552734375000000e-01 2.416803615372035419e-01 -2.202080939639315948e-01 9.450391516757488120e-01
-2.098083496093750000e-02 2.281188964843750000e-02 -1.966552734375000000e-01 2.134623011428471995e-01 3.257892081298566778e-01 -9.210294446199432938e-01
-2.006530761718750000e-02 2.281188964843750000e-02 -1.966552734375000000e-01 -1.970227379972571691e-01 -3.539432890212389493e-01 9.142790541562745288e-01
-1.913452148437500000e-02 2.281188964843750000e-02 -1.966552734375000000e-01 -1.771824437481872294e-01 -3.191736022777286186e-01 9.309858179566854464e-01
-1.811218261718750000e-02 2.268981933593750000e-02 -1.956787109375000000e-01 -1.446695584415815250e-01 -3.269417055059539723e-01 9.339056912029051194e-01
-1.719665527343750000e-02 2.268981933593750000e-02 -1.956787109375000000e-01 -1.456971593046651470e-01 -3.410837665631588633e-01 9.286733558995000637e-01
-1.628112792968750000e-02 2.268981933593750000e-02 -1.956787109375000000e-01 -1.055398073254346647e-01 -3.586307789233035281e-01 9.274941042823801052e-01
-1.536560058593750000e-02 2.268981933593750000e-02 -1.956787109375000000e-01 -7.014502155456590893e-02 -3.833409156679468688e-01 9.209394216374765518e-01
-1.444244384765625000e-02 2.268981933593750000e-02 -1.956787109375000000e-01 -1.758630630531691011e-02 -3.957879654178501072e-01 9.181735175123132420e-01
-1.352691650390625000e-02 2.268981933593750000e-02 -1.956787109375000000e-01 1.338306113142366006e-02 -3.965342541477798188e-01 9.179223708801396153e-01
-1.260375976562500000e-02 2.268981933593750000e-02 -1.956787109375000000e-01 1.373718941743378753e-02 -3.964143855891135715e-01 9.179689126135563981e-01
-1.168823242187500000e-02 2.268981933593750000e-02 -1.956787109375000000e-01 4.301145942654399645e-02 -4.113280544833224917e-01 9.104719907569719384e-01
-1.076507568359375000e-02 2.268981933593750000e-02 -1.956787109375000000e-01 5.335505089929016426e-02 -4.258294603425281655e-01 9.032289351254892962e-01
-9.849548339843750000e-03 2.268981933593750000e-02 -1.956787109375000000e-01 4.317807329409671657e-02 -4.484884157227650436e-01 8.927450895687379928e-01
-8.926391601562500000e-03 2.268981933593750000e-02 -1.956787109375000000e-01 5.628452689337135051e-02 -4.672603711131051440e-01 8.823263555055083085e-01
-8.010864257812500000e-03 2.268981933593750000e-02 -1.956787109375000000e-01 1.185981202755409178e-02 -4.777236125207010575e-01 8.784301309147144465e-01
-7.091522216796875000e-03 2.268981933593750000e-02 -1.956787109375000000e-01 -7.113419792956598552e-04 -4.826681115451236792e-01 8.758030532545845182e-01
-6.172180175781250000e-03 2.268981933593750000e-02 -1.956787109375000000e-01 -6.151519460066311911e-04 -4.826708732320001416e-01 8.758016040871023922e-01
-5.252838134765625000e-03 2.268981933593750000e-02 -1.956787109375000000e-01 -5.245321326951609287e-04 -4.826733748566921500e-01 8.758002843516852209e-01
-4.333496093750000000e-03 2.268981933593750000e-02 -1.956787109375000000e-01 2.337208519010729180e-02 -4.587290972678143564e-01 8.882687436546006232e-01
-3.414154052734375000e-03 2.268981933593750000e-02 -1.956787109375000000e-01 3.581915621160781937e-02 -4.325027329006970733e-01 9.009208478449793889e-01
-2.494812011718750000e-03 2.268981933593750000e-02 -1.956787109375000000e-01 3.629189637820333381e-02 -4.046894725192035636e-01 9.137337298630286986e-01
-1.575469970703125000e-03 2.268981933593750000e-02 -1.956787109375000000e-01 6.142774046381339892e-02 -3.779159935493273670e-01 9.237998346617817269e-01
-6.566047668457031250e-04 2.268981933593750000e-02 -1.956787109375000000e-01 6.196982432335925578e-02 -3.500700712549610905e-01 9.346714321540369186e-01
2.622604370117187500e-04 2.268981933593750000e-02 -1.956787109375000000e-01 7.760612997399603252e-02 -3.843460379495217127e-01 9.199214160475688296e-01
1.187324523925781250e-03 2.281188964843750000e-02 -1.966552734375000000e-01 1.188067034740883515e-01 -4.141664611643001703e-01 9.024140455778933978e-01
2.111434936523437500e-03 2.281188964843750000e-02 -1.966552734375000000e-01 1.319056934691222316e-01 -4.024766488131821252e-01 9.058771634115412308e-01
3.034591674804687500e-03 2.281188964843750000e-02 -1.966552734375000000e-01 1.351758321812432662e-01 -4.024178305334127903e-01 9.054211086908068307e-01
3.959655761718750000e-03 2.281188964843750000e-02 -1.966552734375000000e-01 1.267874345862190499e-01 -4.087787807698011755e-01 9.037836327481262311e-01
4.882812500000000000e-03 2.281188964843750000e-02 -1.966552734375000000e-01 1.785529887036955698e-01 -3.511005447698472559e-01 9.191557200427434848e-01
5.805969238281250000e-03 2.281188964843750000e-02 -1.966552734375000000e-01 1.961283064418458955e-01 -2.988666265306672565e-01 9.339231376073900970e-01
6.729125976562500000e-03 2.281188964843750000e-02 -1.966552734375000000e-01 1.653314214789901315e-01 -2.358132722435583306e-01 9.576312556018219402e-01
7.694244384765625000e-03 2.293395996093750000e-02 -1.977539062500000000e-01 -1.927517328237789429e-01 2.538186187116768244e-01 -9.478517174583410698e-01
-2.098083496093750000e-02 2.188110351562500000e-02 -1.966552734375000000e-01 1.810211853980245311e-01 3.535726989215588478e-01 -9.177241835183480578e-01
-2.006530761718750000e-02 2.188110351562500000e-02 -1.966552734375000000e-01 -1.929473619518504157e-01 -3.632473826089322455e-01 9.114947364321867029e-01
-1.913452148437500000e-02 2.188110351562500000e-02 -1.966552734375000000e-01 -2.010417164227897291e-01 -3.738039238547182785e-01 9.054572628062543815e-01
-1.820373535156250000e-02 2.188110351562500000e-02 -1.966552734375000000e-01 -1.541482100025611812e-01 -3.635003617095780015e-01 9.187523150392669091e-01
-1.728820800781250000e-02 2.188110351562500000e-02 -1.966552734375000000e-01 -1.169318074956561260e-01 -3.479588227320144500e-01 9.301890184681548268e-01
-1.628112792968750000e-02 2.177429199218750000e-02 -1.956787109375000000e-01 -6.841494764817845908e-02 -3.326652444939115494e-01 9.405600619014731212e-01
-1.536560058593750000e-02 2.177429199218750000e-02 -1.956787109375000000e-01 -4.107376137724765008e-02 -3.642844144843351839e-01 9.303815408154495481e-01
-1.444244384765625000e-02 2.177429199218750000e-02 -1.956787109375000000e-01 -1.236760763875591890e-02 -3.597040307784937219e-01 9.329844867536641884e-01
-1.352691650390625000e-02 2.177429199218750000e-02 -1.956787109375000000e-01 -1.706000397488525219e-03 -3.438987115022956731e-01 9.390052000866153659e-01
-1.260375976562500000e-02 2.177429199218750000e-02 -1.956787109375000000e-01 3.550237019778226116e-02 -3.478469757499703663e-01 9.368788946133534967e-01
-1.168823242187500000e-02 2.177429199218750000e-02 -1.956787109375000000e-01 7.051296623336784919e-02 -3.735721249804510036e-01 9.249171795520733097e-01
-1.076507568359375000e-02 2.177429199218750000e-02 -1.956787109375000000e-01 1.004792888362490699e-01 -4.200247648565956782e-01 9.019329849950732392e-01
-9.895324707031250000e-03 2.188110351562500000e-02 -1.966552734375000000e-01 1.104508591865942524e-01 -4.551154338225175122e-01 8.835556290361602505e-01
-8.972167968750000000e-03 2.188110351562500000e-02 -1.966552734375000000e-01 8.428592605310895880e-02 -4.820738562236412950e-01 8.720669009973018859e-01
-8.049011230468750000e-03 2.188110351562500000e-02 -1.966552734375000000e-01 3.383992098372669288e-02 -5.060883746340534284e-01 8.618175078333446537e-01
-7.125854492187500000e-03 2.188110351562500000e-02 -1.966552734375000000e-01 -6.786614853726671880e-04 -5.010433925700221724e-01 8.654218960602456656e-01
-6.202697753906250000e-03 2.188110351562500000e-02 -1.966552734375000000e-01 7.952070986511695569e-03 -5.158758352585065543e-01 8.566264571931943017e-01
-5.279541015625000000e-03 2.188110351562500000e-02 -1.966552734375000000e-01 8.032231583160883218e-03 -5.158568973944537284e-01 8.566371137572561523e-01
-4.356384277343750000e-03 2.188110351562500000e-02 -1.966552734375000000e-01 8.118939229454561618e-03 -5.158362112643072317e-01 8.566487529753799013e-01
-3.431320190429687500e-03 2.188110351562500000e-02 -1.966552734375000000e-01 6.996703787507831465e-03 -4.840427752549970042e-01 8.750163643381478895e-01
-2.508163452148437500e-03 2.188110351562500000e-02 -1.966552734375000000e-01 -2.787383505245275895e-04 -4.837390567744870862e-01 8.752122298367759345e-01
-1.584053039550781250e-03 2.188110351562500000e-02 -1.966552734375000000e-01 -1.764056153792220561e-04 -4.837399593849798785e-01 8.752117575622924139e-01
-6.599426269531250000e-04 2.188110351562500000e-02 -1.966552734375000000e-01 5.770780814979584172e-02 -4.730266341334339320e-01 8.791561933348025493e-01
2.634525299072265625e-04 2.188110351562500000e-02 -1.966552734375000000e-01 9.600903222565743134e-02 -4.786470215505498338e-01 8.727423987018622098e-01
1.187324523925781250e-03 2.188110351562500000e-02 -1.966552734375000000e-01 1.090134385813487927e-01 -4.825386201716317935e-01 8.690641807435904864e-01
2.111434936523437500e-03 2.188110351562500000e-02 -1.966552734375000000e-01 1.201002759871897807e-01 -4.620937957624234316e-01 8.786610538914744195e-01
3.034591674804687500e-03 2.188110351562500000e-02 -1.966552734375000000e-01 1.153405731766355968e-01 -4.415909595975934798e-01 8.897718677172039570e-01
3.959655761718750000e-03 2.188110351562500000e-02 -1.966552734375000000e-01 1.065736926816293478e-01 -4.278462617647935673e-01 8.975464468884567504e-01
4.882812500000000000e-03 2.188110351562500000e-02 -1.966552734375000000e-01 1.291115817631255380e-01 -3.574254777871253563e-01 9.249741765494153833e-01
5.836486816406250000e-03 2.200317382812500000e-02 -1.977539062500000000e-01 1.060961841635184449e-01 -3.302895294188689101e-01 9.378978763501935045e-01
6.763458251953125000e-03 2.200317382812500000e-02 -1.977539062500000000e-01 1.601230512757628177e-01 -3.449398537000742393e-01 9.248659934171602481e-01
7.694244384765625000e-03 2.200317382812500000e-02 -1.977539062500000000e-01 -1.739494034944505940e-01 3.254342498941460993e-01 -9.294267878750640532e-01
8.621215820312500000e-03 2.200317382812500000e-02 -1.977539062500000000e-01 -1.666437801170281285e-01 3.158723478922225159e-01 -9.340527342636295582e-01
-2.201843261718750000e-02 2.107238769531250000e-02 -1.977539062500000000e-01 1.371283191518717359e-01 3.754577858645050670e-01 -9.166391193486700395e-01
-2.108764648437500000e-02 2.107238769531250000e-02 -1.977539062500000000e-01 1.371283191518717359e-01 3.754577858645050670e-01 -9.166391193486700395e-01
-2.006530761718750000e-02 2.096557617187500000e-02 -1.966552734375000000e-01 -1.897234254294905831e-01 -3.698014895369126642e-01 9.095338807210984200e-01
-1.913452148437500000e-02 2.096557617187500000e-02 -1.966552734375000000e-01 -1.726751794623476721e-01 -3.943804492144653007e-01 9.025781648561206350e-01
-1.820373535156250000e-02 2.096557617187500000e-02 -1.966552734375000000e-01 -1.518880428007408634e-01 -4.149365289533769596e-01 8.970828832355924876e-01
-1.728820800781250000e-02 2.096557617187500000e-02 -1.966552734375000000e-01 -1.176187775674285702e-01 -4.280444305848055686e-01 8.960713077701313312e-01
-1.635742187500000000e-02 2.096557617187500000e-02 -1.966552734375000000e-01 -5.700915014185464064e-02 -4.538861468026531010e-01 8.892341213318031290e-01
-1.544189453125000000e-02 2.096557617187500000e-02 -1.966552734375000000e-01 -5.151292982715044433e-02 -4.646016539183178140e-01 8.840202040886773194e-01
-1.451873779296875000e-02 2.096557617187500000e-02 -1.966552734375000000e-01 -2.649695418042636100e-02 -4.766444353829593639e-01 8.786967586361180693e-01
-1.359558105468750000e-02 2.096557617187500000e-02 -1.966552734375000000e-01 1.122281596504928237e-02 -4.797992633777376503e-01 8.773065115818957649e-01
-1.267242431640625000e-02 2.096557617187500000e-02 -1.966552734375000000e-01 1.132783130784934672e-02 -4.797872682851873627e-01 8.773117219263051325e-01
-1.174163818359375000e-02 2.096557617187500000e-02 -1.966552734375000000e-01 8.348583608950460588e-02 -4.926953520612791237e-01 8.661878579324744365e-01
-1.081848144531250000e-02 2.096557617187500000e-02 -1.966552734375000000e-01 1.083257226168427151e-01 -4.974080574004636213e-01 8.607268801731685626e-01
-9.895324707031250000e-03 2.096557617187500000e-02 -1.966552734375000000e-01 1.084584074779096630e-01 -5.011181725464259884e-01 8.585553860940400295e-01
-8.972167968750000000e-03 2.096557617187500000e-02 -1.966552734375000000e-01 8.427854722292049683e-02 -5.042389492560339637e-01 8.594418005491498702e-01
-8.049011230468750000e-03 2.096557617187500000e-02 -1.966552734375000000e-01 3.623144267899372495e-02 -4.983579344515536858e-01 8.662139757188056510e-01
-7.125854492187500000e-03 2.096557617187500000e-02 -1.966552734375000000e-01 1.458277794020288072e-02 -5.343195195233509942e-01 8.451567864271587460e-01
-6.202697753906250000e-03 2.096557617187500000e-02 -1.966552734375000000e-01 1.653153346082133351e-02 -5.627423300976025500e-01 8.264670461172392013e-01
-5.279541015625000000e-03 2.096557617187500000e-02 -1.966552734375000000e-01 6.944483821657045780e-03 -5.881452662486270633e-01 8.087254910869215996e-01
-4.356384277343750000e-03 2.096557617187500000e-02 -1.966552734375000000e-01 -5.283194407768795897e-04 -5.894457066263468770e-01 8.078078235684122976e-01
-3.431320190429687500e-03 2.096557617187500000e-02 -1.966552734375000000e-01 -4.103143919362618221e-04 -5.894478734822873323e-01 8.078063109986879375e-01
-2.508163452148437500e-03 2.096557617187500000e-02 -1.966552734375000000e-01 -3.007849926342857612e-04 -5.894494522173864270e-01 8.078052072183066201e-01
-1.584053039550781250e-03 2.096557617187500000e-02 -1.966552734375000000e-01 -1.848844276893742188e-04 -5.894505837545871429e-01 8.078044163837709846e-01
-6.599426269531250000e-04 2.096557617187500000e-02 -1.966552734375000000e-01 6.421552091514830252e-02 -5.798307446932908782e-01 8.122023604878403358e-01
2.634525299072265625e-04 2.096557617187500000e-02 -1.966552734375000000e-01 1.033365014593221332e-01 -5.663821505155748337e-01 8.176385674877990617e-01
1.187324523925781250e-03 2.096557617187500000e-02 -1.966552734375000000e-01 1.172311628276404977e-01 -5.535970887365572191e-01 8.244920362286632942e-01
2.120971679687500000e-03 2.107238769531250000e-02 -1.977539062500000000e-01 9.163118857646782023e-02 -5.235083696478958215e-01 8.470789291374599683e-01
3.049850463867187500e-03 2.107238769531250000e-02 -1.977539062500000000e-01 6.499961148208541206e-02 -5.012796435685761276e-01 8.628405237649302562e-01
3.978729248046875000e-03 2.107238769531250000e-02 -1.977539062500000000e-01 5.340968739921870406e-02 -4.633322104385397822e-01 8.845737211007652645e-01
4.905700683593750000e-03 2.107238769531250000e-02 -1.977539062500000000e-01 5.776590591708693351e-02 -4.578714834124075761e-01 8.871396760326412112e-01
5.836486816406250000e-03 2.107238769531250000e-02 -1.977539062500000000e-01 9.608973202361752175e-02 -4.147284935838307374e-01 9.048574694443958233e-01
6.763458251953125000e-03 2.107238769531250000e-02 -1.977539062500000000e-01 1.244387764697069965e-01 -3.863138714282990382e-01 9.139346714359850576e-01
7.694244384765625000e-03 2.107238769531250000e-02 -1.977539062500000000e-01 -1.216961903290152552e-01 3.680760201156234590e-01 -9.217972014902450217e-01
8.621215820312500000e-03 2.107238769531250000e-02 -1.977539062500000000e-01 -1.276314545493031638e-01 3.302614799486020547e-01 -9.352205978654386520e-01
-2.201843261718750000e-02 2.014160156250000000e-02 -1.977539062500000000e-01 1.474058698376436993e-01 3.855725139225818499e-01 -9.108267376646494995e-01
-2.108764648437500000e-02 2.014160156250000000e-02 -1.977539062500000000e-01 8.947370089569925411e-02 4.030977108294009348e-01 -9.107725799408562528e-01
-2.015686035156250000e-02 2.014160156250000000e-02 -1.977539062500000000e-01 -9.145745836712874943e-02 -4.150437691990685463e-01 9.051929092508708141e-01
-1.922607421875000000e-02 2.014160156250000000e-02 -1.977539062500000000e-01 -1.501466136290998676e-01 -4.416090590128727289e-01 8.845549352151503841e-01
-1.820373535156250000e-02 2.003479003906250000e-02 -1.966552734375000000e-01 -1.478845278264559748e-01 -4.677987768103063493e-01 8.713750460303114620e-01
-1.728820800781250000e-02 2.003479003906250000e-02 -1.966552734375000000e-01 -1.139424579380131503e-01 -4.779307734138867336e-01 8.709760571353544201e-01
-1.635742187500000000e-02 2.003479003906250000e-02 -1.966552734375000000e-01 -6.157861712488512523e-02 -4.606630578839876478e-01 8.854364014506974634e-01
-1.544189453125000000e-02 2.003479003906250000e-02 -1.966552734375000000e-01 -2.524935145243408646e-02 -4.820813549133449727e-01 8.757625462967373320e-01
-1.451873779296875000e-02 2.003479003906250000e-02 -1.966552734375000000e-01 -1.395006859839013642e-03 -5.052515215466678589e-01 8.629710041076918969e-01
-1.359558105468750000e-02 2.003479003906250000e-02 -1.966552734375000000e-01 9.397491636211545256e-05 -5.011454303657163489e-01 8.653630733930562924e-01
-1.267242431640625000e-02 2.003479003906250000e-02 -1.966552734375000000e-01 5.528036014465090991e-02 -5.400853626512964745e-01 8.397927618359753987e-01
-1.174163818359375000e-02 2.003479003906250000e-02 -1.966552734375000000e-01 1.086312581146854916e-01 -5.528648384119421166e-01 8.261596215067386062e-01
-1.081848144531250000e-02 2.003479003906250000e-02 -1.966552734375000000e-01 1.246024997333788908e-01 -5.632973591473452446e-01 8.168049352433053301e-01
-9.948730468750000000e-03 2.014160156250000000e-02 -1.977539062500000000e-01 9.632278600917196232e-02 -5.607139381281928125e-01 8.223878649908475946e-01
-9.017944335937500000e-03 2.014160156250000000e-02 -1.977539062500000000e-01 8.901067276158342034e-02 -5.604731955476218719e-01 8.233753076253669256e-01
-8.087158203125000000e-03 2.014160156250000000e-02 -1.977539062500000000e-01 9.292217654657679293e-02 -5.480288649175262261e-01 8.312820413812959108e-01
-7.164001464843750000e-03 2.014160156250000000e-02 -1.977539062500000000e-01 7.004128199525910814e-02 -5.606248240518580950e-01 8.251024333216354645e-01
-6.233215332031250000e-03 2.014160156250000000e-02 -1.977539062500000000e-01 6.989579155427010082e-02 -5.734406909191034352e-01 8.162599783899877615e-01
-5.306243896484375000e-03 2.014160156250000000e-02 -1.977539062500000000e-01 5.983647974767607874e-02 -5.868208307778569610e-01 8.075028843642552134e-01
-4.375457763671875000e-03 2.014160156250000000e-02 -1.977539062500000000e-01 4.014645977566148882e-02 -6.002547663748249995e-01 7.988006492309489559e-01
-3.448486328125000000e-03 2.014160156250000000e-02 -1.977539062500000000e-01 1.120161869122332857e-02 -6.126991294991349646e-01 7.902368635097317684e-01
-2.519607543945312500e-03 2.014160156250000000e-02 -1.977539062500000000e-01 1.129363164931409223e-02 -6.126691670876146523e-01 7.902587839336795428e-01
-1.591682434082031250e-03 2.014160156250000000e-02 -1.977539062500000000e-01 1.138638903698318931e-02 -6.126394359868108097e-01 7.902805018589669217e-01
-6.632804870605468750e-04 2.014160156250000000e-02 -1.977539062500000000e-01 1.948858945810278548e-02 -6.013409157169309349e-01 7.987548422173454954e-01
2.648830413818359375e-04 2.014160156250000000e-02 -1.977539062500000000e-01 3.899419798714989782e-02 -5.632688213592617066e-01 8.253530683337205742e-01
1.193046569824218750e-03 2.014160156250000000e-02 -1.977539062500000000e-01 6.635229116786439674e-02 -5.281726779724957854e-01 8.465406048738224332e-01
2.120971679687500000e-03 2.014160156250000000e-02 -1.977539062500000000e-01 6.381960770608657851e-02 -5.170852876008599219e-01 8.535513241855917643e-01
3.049850463867187500e-03 2.014160156250000000e-02 -1.977539062500000000e-01 4.697889868919759987e-02 -5.055116902984436722e-01 8.615398505290167153e-01
3.978729248046875000e-03 2.014160156250000000e-02 -1.977539062500000000e-01 4.139166247433882784e-02 -4.713101487640817822e-01 8.809957286784024788e-01
4.905700683593750000e-03 2.014160156250000000e-02 -1.977539062500000000e-01 4.067466685417208544e-02 -4.416292558931264045e-01 8.962751652341961472e-01
5.836486816406250000e-03 2.014160156250000000e-02 -1.977539062500000000e-01 7.714111546129372166e-02 -4.125679191061917273e-01 9.076546482169163266e-01
6.763458251953125000e-03 2.014160156250000000e-02 -1.977539062500000000e-01 1.010806737005716521e-01 -3.661490913713746909e-01 9.250500204270877269e-01
7.694244384765625000e-03 2.014160156250000000e-02 -1.977539062500000000e-01 -6.680201622890657998e-02 3.675129949346863101e-01 -9.276161324502123495e-01
8.666992187500000000e-03 2.024841308593750000e-02 -1.987304687500000000e-01 -3.928633188247998564e-02 3.726415701791564450e-01 -9.271433785028251329e-01
-2.201843261718750000e-02 1.921081542968750000e-02 -1.977539062500000000e-01 9.102272249203421928e-02 4.630904373167840649e-01 -8.816246995495800043e-01
-2.108764648437500000e-02 1.921081542968750000e-02 -1.977539062500000000e-01 9.133113509870338653e-02 4.800425096904493705e-01 -8.724779725882353398e-01
-2.015686035156250000e-02 1.921081542968750000e-02 -1.977539062500000000e-01 -1.244125766545024214e-01 -4.495020271616297358e-01 8.845730260118568333e-01
-1.922607421875000000e-02 1.921081542968750000e-02 -1.977539062500000000e-01 -9.202126064927662608e-02 -4.724116503083456431e-01 8.765610761615321156e-01
-1.831054687500000000e-02 1.921081542968750000e-02 -1.977539062500000000e-01 -1.099508285136764629e-01 -5.035899879299574611e-01 8.569176969615351913e-01
-1.737976074218750000e-02 1.921081542968750000e-02 -1.977539062500000000e-01 -9.792409817668262795e-02 -5.036362013729537290e-01 8.583480923628274972e-01
-1.644897460937500000e-02 1.921081542968750000e-02 -1.977539062500000000e-01 -6.778204513051730440e-02 -5.056656245175600306e-01 8.600627131431698436e-01
-1.551818847656250000e-02 1.921081542968750000e-02 -1.977539062500000000e-01 -2.238494539182804555e-02 -5.366277464206228309e-01 8.435221253715450285e-01
-1.459503173828125000e-02 1.921081542968750000e-02 -1.977539062500000000e-01 3.932508105380361219e-02 -5.349109941978498206e-01 8.439927525082071558e-01
-1.366424560546875000e-02 1.921081542968750000e-02 -1.977539062500000000e-01 5.973676805909002019e-02 -5.476442721189850316e-01 8.345761018368075268e-01
-1.273345947265625000e-02 1.921081542968750000e-02 -1.977539062500000000e-01 8.123937710080306185e-02 -5.524535787159615685e-01 8.295753172390076813e-01
-1.180267333984375000e-02 1.921081542968750000e-02 -1.977539062500000000e-01 1.118334519431358476e-01 -5.606111775309534639e-01 8.204927706286265776e-01
-1.087951660156250000e-02 1.921081542968750000e-02 -1.977539062500000000e-01 1.236002936771821437e-01 -5.898283901125477291e-01 7.980134319797849152e-01
-9.948730468750000000e-03 1.921081542968750000e-02 -1.977539062500000000e-01 9.893303621887623855e-02 -5.909767170168986894e-01 8.005990096724096006e-01
-9.017944335937500000e-03 1.921081542968750000e-02 -1.977539062500000000e-01 7.807786775438210758e-02 -5.938813132414111351e-01 8.007551637982649462e-01
-8.087158203125000000e-03 1.921081542968750000e-02 -1.977539062500000000e-01 6.188492072644254105e-02 -5.907954749401889138e-01 8.044445060890641486e-01
-7.164001464843750000e-03 1.921081542968750000e-02 -1.977539062500000000e-01 6.870763479337017865e-02 -5.977620156873161283e-01 7.987238781472216775e-01
-6.267547607421875000e-03 1.930236816406250000e-02 -1.987304687500000000e-01 5.670175625391798285e-02 -6.285333916761181028e-01 7.757130180587641366e-01
-5.332946777343750000e-03 1.930236816406250000e-02 -1.987304687500000000e-01 4.840951686647633478e-02 -6.286583201889239803e-01 7.761734568599948370e-01
-4.398345947265625000e-03 1.930236816406250000e-02 -1.987304687500000000e-01 3.113963999660077780e-02 -6.293562687045783921e-01 7.764927622735017243e-01
-3.467559814453125000e-03 1.930236816406250000e-02 -1.987304687500000000e-01 4.985465275947148500e-03 -6.297203775758362099e-01 7.768058902980388147e-01
-2.532958984375000000e-03 1.930236816406250000e-02 -1.987304687500000000e-01 5.045276034089316887e-03 -6.297052529848529145e-01 7.768177646996895502e-01
-1.600265502929687500e-03 1.930236816406250000e-02 -1.987304687500000000e-01 5.102561488193421702e-03 -6.296903832442924953e-01 7.768294440325465011e-01
-6.670951843261718750e-04 1.930236816406250000e-02 -1.987304687500000000e-01 5.157915732879027326e-03 -6.296747983469125343e-01 7.768417111819290177e-01
2.663135528564453125e-04 1.930236816406250000e-02 -1.987304687500000000e-01 1.293346348289687447e-02 -6.046549522393139808e-01 7.963825175471955786e-01
1.199722290039062500e-03 1.930236816406250000e-02 -1.987304687500000000e-01 2.129213930062038088e-02 -5.750448174498371534e-01 8.178447913437404404e-01
2.132415771484375000e-03 1.930236816406250000e-02 -1.987304687500000000e-01 1.912996996149537304e-02 -5.409913464533624428e-01 8.408105656518893856e-01
3.065109252929687500e-03 1.930236816406250000e-02 -1.987304687500000000e-01 5.755436600501186162e-03 -5.021738696658053502e-01 8.647475236012002187e-01
3.997802734375000000e-03 1.930236816406250000e-02 -1.987304687500000000e-01 -8.180522864216768428e-03 -4.891833282584939768e-01 8.721426204466848908e-01
4.932403564453125000e-03 1.930236816406250000e-02 -1.987304687500000000e-01 7.301266648649858484e-03 -4.584988967714522246e-01 8.886649836494552313e-01
5.867004394531250000e-03 1.930236816406250000e-02 -1.987304687500000000e-01 6.351349086077949947e-04 -4.582988957761038873e-01 8.887979065760966968e-01
6.797790527343750000e-03 1.930236816406250000e-02 -1.987304687500000000e-01 4.605844827768583276e-03 -3.935711393522834944e-01 9.192826249105157110e-01
7.732391357421875000e-03 1.930236816406250000e-02 -1.987304687500000000e-01 -1.228425270599901864e-02 4.161266728753796884e-01 -9.092236739422933089e-01
8.666992187500000000e-03 1.930236816406250000e-02 -1.987304687500000000e-01 -3.834466061246045998e-02 3.879522484788576753e-01 -9.208815015531116588e-01
-2.201843261718750000e-02 1.828002929687500000e-02 -1.977539062500000000e-01 8.918671487156112909e-02 5.166269706059058997e-01 -8.515528774732564754e-01
-2.119445800781250000e-02 1.837158203125000000e-02 -1.987304687500000000e-01 7.833449798846968404e-02 5.357622383550428857e-01 -8.407273817223321899e-01
-2.026367187500000000e-02 1.837158203125000000e-02 -1.987304687500000000e-01 -8.295724372128192303e-02 -5.506745318430171787e-01 8.305875364425122642e-01
-1.933288574218750000e-02 1.837158203125000000e-02 -1.987304687500000000e-01 -5.608569814880993293e-02 -5.726923146060101111e-01 8.178495627279942504e-01
-1.840209960937500000e-02 1.837158203125000000e-02 -1.987304687500000000e-01 -8.031371886186561282e-02 -5.753580061624571362e-01 8.139489365478274063e-01
-1.737976074218750000e-02 1.828002929687500000e-02 -1.977539062500000000e-01 -9.625347069088283081e-02 -5.849460084526378889e-01 8.053405717926335194e-01
-1.644897460937500000e-02 1.828002929687500000e-02 -1.977539062500000000e-01 -6.197621622336105945e-02 -6.009830004395654290e-01 7.968553079482449952e-01
-1.551818847656250000e-02 1.828002929687500000e-02 -1.977539062500000000e-01 -4.022438332247018494e-02 -5.974531046959683511e-01 8.008943667397563360e-01
-1.459503173828125000e-02 1.828002929687500000e-02 -1.977539062500000000e-01 2.339346714723125262e-02 -5.954918382347682559e-01 8.030206823554472129e-01
-1.366424560546875000e-02 1.828002929687500000e-02 -1.977539062500000000e-01 4.351427565364431038e-02 -5.980266246414562836e-01 8.002941109581436230e-01
-1.273345947265625000e-02 1.828002929687500000e-02 -1.977539062500000000e-01 6.825597870945342149e-02 -5.970300118140272616e-01 7.993098813124712709e-01
-1.186370849609375000e-02 1.837158203125000000e-02 -1.987304687500000000e-01 1.121797880497414635e-01 -6.329065654899957982e-01 7.660580751566898883e-01
-1.093292236328125000e-02 1.837158203125000000e-02 -1.987304687500000000e-01 1.209422352013951180e-01 -6.160800735811632345e-01 7.783433167187335799e-01
-1.000213623046875000e-02 1.837158203125000000e-02 -1.987304687500000000e-01 1.185364742195975235e-01 -6.233510040007083086e-01 7.729053176753901688e-01
-9.063720703125000000e-03 1.837158203125000000e-02 -1.987304687500000000e-01 1.055558352365044555e-01 -6.149363409894766930e-01 7.814801738867069858e-01
-8.132934570312500000e-03 1.837158203125000000e-02 -1.987304687500000000e-01 8.999589488469601772e-02 -6.180921514685995266e-01 7.809371493256166419e-01
-7.198333740234375000e-03 1.837158203125000000e-02 -1.987304687500000000e-01 6.478196665799497433e-02 -6.412584755616952403e-01 7.645854198951305136e-01
-6.267547607421875000e-03 1.837158203125000000e-02 -1.987304687500000000e-01 5.584054229721456541e-02 -6.456015579800554738e-01 7.616301347568109614e-01
-5.332946777343750000e-03 1.837158203125000000e-02 -1.987304687500000000e-01 4.763557013326978617e-02 -6.354799661816986633e-01 7.706465240561234387e-01
-4.398345947265625000e-03 1.837158203125000000e-02 -1.987304687500000000e-01 3.037801943488587300e-02 -6.254005327828539018e-01 7.797123505050669312e-01
-3.467559814453125000e-03 1.837158203125000000e-02 -1.987304687500000000e-01 3.903539242179795889e-03 -6.144465092437567666e-01 7.889488257545902439e-01
-2.532958984375000000e-03 1.837158203125000000e-02 -1.987304687500000000e-01 3.961941845731103279e-03 -6.144340015225745466e-01 7.889582756963564592e-01
-1.600265502929687500e-03 1.837158203125000000e-02 -1.987304687500000000e-01 4.020877156315306143e-03 -6.144207874748216502e-01 7.889682683515947259e-01
-6.670951843261718750e-04 1.837158203125000000e-02 -1.987304687500000000e-01 4.080453899901963222e-03 -6.144072773731225068e-01 7.889784834879325359e-01
2.663135528564453125e-04 1.837158203125000000e-02 -1.987304687500000000e-01 -4.109202981366740642e-03 -6.144011594126882470e-01 7.889830985282272335e-01
1.199722290039062500e-03 1.837158203125000000e-02 -1.987304687500000000e-01 5.384225989671686911e-03 -5.877494946793255792e-01 8.090250562341624319e-01
2.132415771484375000e-03 1.837158203125000000e-02 -1.987304687500000000e-01 5.981466905338495531e-03 -5.732812564512616005e-01 8.193368190526550965e-01
3.065109252929687500e-03 1.837158203125000000e-02 -1.987304687500000000e-01 3.669396927297701306e-04 -5.611762940884854611e-01 8.276962198224512290e-01
3.997802734375000000e-03 1.837158203125000000e-02 -1.987304687500000000e-01 4.776306723668325587e-04 -5.611743215685366382e-01 8.276975007096694092e-01
4.932403564453125000e-03 1.837158203125000000e-02 -1.987304687500000000e-01 5.885271107958350021e-04 -5.611718900600682902e-01 8.276990778309775143e-01
5.867004394531250000e-03 1.837158203125000000e-02 -1.987304687500000000e-01 -4.056778882415350285e-02 -5.664147524703861958e-01 8.231212442245856575e-01
6.797790527343750000e-03 1.837158203125000000e-02 -1.987304687500000000e-01 -2.251342401275310476e-02 -5.228289107243180300e-01 8.521402911786563061e-01
7.732391357421875000e-03 1.837158203125000000e-02 -1.987304687500000000e-01 1.065159730588107791e-02 -5.051629087458757716e-01 8.629582719356940768e-01
8.666992187500000000e-03 1.837158203125000000e-02 -1.987304687500000000e-01 5.179906940116885128e-03 4.509236579399906186e-01 -8.925474907667997337e-01
-2.119445800781250000e-02 1.744079589843750000e-02 -1.987304687500000000e-01 6.339756150898276377e-02 5.396403917011963758e-01 -8.395052095367211420e-01
-2.026367187500000000e-02 1.744079589843750000e-02 -1.987304687500000000e-01 -5.307569446779943773e-02 -5.851447465818065963e-01 8.091900865708093749e-01
-1.933288574218750000e-02 1.744079589843750000e-02 -1.987304687500000000e-01 -3.981244534524126105e-02 -6.096241857581540247e-01 7.916901675114701442e-01
-1.840209960937500000e-02 1.744079589843750000e-02 -1.987304687500000000e-01 -6.484587024872058569e-02 -6.272839172097049998e-01 7.760862711849333406e-01
-1.745605468750000000e-02 1.744079589843750000e-02 -1.987304687500000000e-01 -4.957079260572716528e-02 -6.569660001043785558e-01 7.522887818034331708e-01
-1.652526855468750000e-02 1.744079589843750000e-02 -1.987304687500000000e-01 -4.075719402471263131e-02 -6.671925667500789858e-01 7.437694064753357370e-01
-1.560211181640625000e-02 1.744079589843750000e-02 -1.987304687500000000e-01 -2.349026792598772617e-02 -6.768003679448700849e-01 7.357917295420313142e-01
-1.466369628906250000e-02 1.744079589843750000e-02 -1.987304687500000000e-01 2.786451652496881037e-02 -6.759273388869221355e-01 7.364413087708170380e-01
-1.373291015625000000e-02 1.744079589843750000e-02 -1.987304687500000000e-01 4.556542567106662556e-02 -6.655976702259633893e-01 7.449184743132528652e-01
-1.280212402343750000e-02 1.744079589843750000e-02 -1.987304687500000000e-01 8.054316012138011682e-02 -6.538848988363687997e-01 7.522947151425519730e-01
-1.186370849609375000e-02 1.744079589843750000e-02 -1.987304687500000000e-01 9.845229197683527667e-02 -6.418521893698474479e-01 7.604820268787695348e-01
-1.093292236328125000e-02 1.744079589843750000e-02 -1.987304687500000000e-01 1.196115415048730479e-01 -6.186869709442986975e-01 7.764789186594808212e-01
-1.004791259765625000e-02 1.753234863281250000e-02 -1.997070312500000000e-01 1.057541673125776266e-01 -6.434996395746589437e-01 7.581057116018237174e-01
-9.109497070312500000e-03 1.753234863281250000e-02 -1.997070312500000000e-01 9.886043668111477167e-02 -6.407299273064583911e-01 7.613749236171888368e-01
-8.171081542968750000e-03 1.753234863281250000e-02 -1.997070312500000000e-01 9.151322682447894652e-02 -6.400964339677425174e-01 7.628249370189406076e-01
-7.236480712890625000e-03 1.753234863281250000e-02 -1.997070312500000000e-01 6.330306887064299226e-02 -6.264576019289043174e-01 7.768806822524582101e-01
-6.298065185546875000e-03 1.753234863281250000e-02 -1.997070312500000000e-01 5.948496156815270830e-02 -6.331978847156898293e-01 7.717007050267683521e-01
-5.359649658203125000e-03 1.753234863281250000e-02 -1.997070312500000000e-01 3.628623972027919531e-02 -6.492965162635579990e-01 7.596692324788266726e-01
-4.421234130859375000e-03 1.753234863281250000e-02 -1.997070312500000000e-01 2.035752978117803466e-02 -6.524690485367998782e-01 7.575418877413259144e-01
-3.484725952148437500e-03 1.753234863281250000e-02 -1.997070312500000000e-01 1.271444447939796239e-02 -6.750599948901669922e-01 7.376532696331441485e-01
-2.546310424804687500e-03 1.753234863281250000e-02 -1.997070312500000000e-01 -1.532771099765726109e-04 -6.805041957789265128e-01 7.327441682015654045e-01
-1.607894897460937500e-03 1.753234863281250000e-02 -1.997070312500000000e-01 -1.030704387927881431e-04 -6.805047797377509200e-01 7.327436346571424286e-01
-6.704330444335937500e-04 1.753234863281250000e-02 -1.997070312500000000e-01 -3.518431546930468504e-05 -6.805051467931764186e-01 7.327433001741205931e-01
2.675056457519531250e-04 1.753234863281250000e-02 -1.997070312500000000e-01 1.608603251113370638e-05 -6.805051979243740279e-01 7.327432533562817651e-01
1.205444335937500000e-03 1.753234863281250000e-02 -1.997070312500000000e-01 7.934759139495104754e-05 -6.805049578721477088e-01 7.327434721752124069e-01
2.143859863281250000e-03 1.753234863281250000e-02 -1.997070312500000000e-01 1.348617523550924057e-04 -6.805044493642470327e-01 7.327439363159348185e-01
3.082275390625000000e-03 1.753234863281250000e-02 -1.997070312500000000e-01 1.881254767910592763e-04 -6.805037068001460465e-01 7.327446142006541763e-01
4.016876220703125000e-03 1.753234863281250000e-02 -1.997070312500000000e-01 -1.267271891117808386e-02 -6.750748522352333358e-01 7.376403907562114615e-01
4.955291748046875000e-03 1.753234863281250000e-02 -1.997070312500000000e-01 -3.721138387443506668e-02 -6.488212377326955105e-01 7.600304693741971596e-01
5.893707275390625000e-03 1.753234863281250000e-02 -1.997070312500000000e-01 -6.557716997987844687e-02 -6.368760669656321483e-01 7.681721877963414435e-01
6.832122802734375000e-03 1.753234863281250000e-02 -1.997070312500000000e-01 -6.624158621382637835e-02 -6.170718922898632552e-01 7.841137238957647249e-01
7.770538330078125000e-03 1.753234863281250000e-02 -1.997070312500000000e-01 4.997846546220575947e-02 5.961301587684805225e-01 -8.013307599217127652e-01
8.666992187500000000e-03 1.744079589843750000e-02 -1.987304687500000000e-01 2.136360327883024546e-02 5.521911267202147533e-01 -8.334437929617116714e-01
-2.130126953125000000e-02 1.658630371093750000e-02 -1.997070312500000000e-01 -8.249112613677538758e-03 6.749792247367102371e-01 -7.377906195628384234e-01
-2.037048339843750000e-02 1.658630371093750000e-02 -1.997070312500000000e-01 2.112140421567029747e-03 6.681937708262902786e-01 -7.439842898151699524e-01
-1.942443847656250000e-02 1.658630371093750000e-02 -1.997070312500000000e-01 -3.570368527794950259e-02 -6.886787709527665280e-01 7.241869905601453494e-01
-1.849365234375000000e-02 1.658630371093750000e-02 -1.997070312500000000e-01 -1.666187069705692830e-02 -7.071312403986687034e-01 7.068859815536834290e-01
-1.754760742187500000e-02 1.658630371093750000e-02 -1.997070312500000000e-01 -1.832481411957282563e-02 -7.208303245786633617e-01 6.928692837435513896e-01
-1.661682128906250000e-02 1.658630371093750000e-02 -1.997070312500000000e-01 -1.154796290303315882e-02 -7.330121201093718897e-01 6.801175459621329189e-01
-1.567077636718750000e-02 1.658630371093750000e-02 -1.997070312500000000e-01 7.720331828685449453e-04 -7.599673319772554114e-01 6.499608128896210424e-01
-1.473999023437500000e-02 1.658630371093750000e-02 -1.997070312500000000e-01 7.734063540787725153e-04 -7.599655746869885542e-01 6.499628659648848394e-01
-1.380157470703125000e-02 1.658630371093750000e-02 -1.997070312500000000e-01 1.637002790117646558e-02 -7.492420855788591849e-01 6.620938901575488256e-01
-1.286315917968750000e-02 1.658630371093750000e-02 -1.997070312500000000e-01 4.889812423288983356e-02 -7.303824440657200601e-01 6.812858862820293515e-01
-1.192474365234375000e-02 1.658630371093750000e-02 -1.997070312500000000e-01 6.731925803534809238e-02 -7.074446552739608318e-01 7.035553831944413306e-01
-1.098632812500000000e-02 1.658630371093750000e-02 -1.997070312500000000e-01 9.501549921553920086e-02 -6.798935015980783758e-01 7.271292054329311361e-01
-1.004791259765625000e-02 1.658630371093750000e-02 -1.997070312500000000e-01 9.831372217815878556e-02 -6.498561722901696758e-01 7.536719229000407028e-01
-9.109497070312500000e-03 1.658630371093750000e-02 -1.997070312500000000e-01 9.875876482662469813e-02 -6.396984117894201072e-01 7.622549759260435209e-01
-8.216857910156250000e-03 1.667785644531250000e-02 -2.006835937500000000e-01 6.110595796510520650e-02 -6.323545770183470749e-01 7.722653370604655176e-01
-7.270812988281250000e-03 1.667785644531250000e-02 -2.006835937500000000e-01 7.527502016663717432e-02 -6.330554093085208889e-01 7.704378755513862087e-01
-6.328582763671875000e-03 1.667785644531250000e-02 -2.006835937500000000e-01 7.690526806603942278e-02 -6.436777036833412069e-01 7.614227429783217982e-01
-5.386352539062500000e-03 1.667785644531250000e-02 -2.006835937500000000e-01 6.033448010195525957e-02 -6.697022161179195798e-01 7.401747714138695589e-01
-4.444122314453125000e-03 1.667785644531250000e-02 -2.006835937500000000e-01 6.974983923021978172e-02 -7.007522002217886348e-01 7.099868405905004343e-01
-3.501892089843750000e-03 1.667785644531250000e-02 -2.006835937500000000e-01 6.176863715277303851e-02 -7.266321321471574946e-01 6.842443861629886603e-01
